44.9118	74.6776	910
46.6213	74.2673	905
48.4167	74.0211	902
50.3107	73.939	901
52.2584	73.939	901
53.3037	72.7081	886
54.4711	71.7233	874
55.7155	70.9027	864
57.5166	70.8206	863
59.9327	71.4771	871
62.3123	72.0515	878
64.1372	71.9695	877
66.2589	72.2157	880
68.6259	72.7081	886
71.0985	73.2825	893
73.356	73.6107	897
75.9666	74.2673	905
78.784	75.0879	915
81.2033	75.4982	920
83.2825	75.5803	921
84.5327	74.9238	913
86.0326	74.5134	908
87.7047	74.2673	905
87.6796	72.626	885
89.1878	72.2977	881
90.6787	71.9695	877
92.5745	71.9695	877
95.4398	72.7081	886
98.1243	73.2825	893
100.167	73.3646	894
101.642	73.0363	890
103.217	72.7901	887
104.424	72.2977	881
107.897	73.3646	894
110.812	74.0211	902
112.762	74.0211	902
113.568	73.2825	893
114.981	72.9542	889
118.086	73.6928	898
120.963	74.2673	905
123.462	74.5955	909
126.255	75.0879	915
128.514	75.252	917
127.365	73.4466	895
128	72.7081	886
131.528	73.6107	897
137.931	76.0726	927
136.01	73.939	901
137.345	73.6107	897
137.731	72.7901	887
134.611	70.1641	855
137.257	70.5744	860
139.278	70.6565	861
140.811	70.4923	859
140.509	69.4255	846
142.506	69.5076	847
145.359	70	853
150.482	71.5592	872
153.765	72.2157	880
154.606	71.7233	874
154.526	70.8206	863
155.485	70.4103	858
158.073	70.7385	862
160.122	70.8206	863
165.367	72.2977	881
166.132	71.8054	875
166.487	71.1488	867
166.614	70.4103	858
168.076	70.2462	856
170.522	70.4923	859
176.191	72.0515	878
176.872	71.5592	872
178.552	71.4771	871
179.192	70.9847	865
178.76	70.082	854
182.721	70.9027	864
184.802	70.9847	865
185.809	70.6565	861
187.234	70.4923	859
188.651	70.3282	857
191.392	70.6565	861
194.151	70.9847	865
198.967	72.0515	878
204.754	73.4466	895
204.611	72.7081	886
203.962	71.8054	875
204.442	71.313	869
206.083	71.2309	868
209.397	71.7233	874
210.803	71.5592	872
212.444	71.4771	871
212.358	70.8206	863
210.5	69.5896	848
211.332	69.2614	844
216.439	70.3282	857
219.566	70.7385	862
221.686	70.8206	863
222.774	70.5744	860
222.021	69.7538	850
227.546	70.9027	864
231.007	71.395	870
232.084	71.1488	867
228.292	69.4255	846
230.665	69.5896	848
235.24	70.4103	858
235.713	70	853
242.848	71.5592	872
243.33	71.1488	867
240.962	69.9179	852
241.948	69.6717	849
247.804	70.8206	863
252.562	71.6412	873
253.575	71.395	870
254.869	71.2309	868
255.858	70.9847	865
255.642	70.4103	858
257.497	70.4103	858
261.769	71.0668	866
263.033	70.9027	864
263.981	70.6565	861
265.533	70.5744	860
268.947	70.9847	865
271.443	71.1488	867
273.947	71.313	869
277.096	71.6412	873
275.148	70.6565	861
272.827	69.5896	848
269.802	68.3587	833
270.95	68.1946	831
272.418	68.1125	830
275.534	68.4408	834
269.023	66.3892	809
268.095	65.7327	801
270.837	65.9789	804
275.965	66.7995	814
278.407	66.9636	816
281.888	67.3739	821
284.008	67.456	822
285.09	67.2919	820
283.364	66.4712	810
283.355	66.0609	805
286.158	66.3071	808
289.686	66.7174	813
289.292	66.2251	807
289.955	65.9789	804
291.33	65.8968	803
294.161	66.143	806
302.144	67.5381	823
303.554	67.456	822
301.245	66.5533	811
301.878	66.3071	808
304.752	66.5533	811
307.638	66.7995	814
314.339	67.8663	827
317.274	68.1125	830
319.453	68.1946	831
322.409	68.4408	834
323.045	68.1946	831
323.669	67.9484	828
325.459	67.9484	828
326.854	67.8663	827
327.846	67.7022	825
328.831	67.5381	823
331.815	67.7843	826
334.812	68.0304	829
336.198	67.9484	828
338.396	68.0304	829
338.137	67.6201	824
341.155	67.8663	827
345.017	68.2766	832
349.316	68.769	838
355.737	69.6717	849
357.151	69.5896	848
359.831	69.7538	850
357.413	68.9331	840
354.525	68.0304	829
352.449	67.2919	820
356.813	67.7843	826
363.808	68.769	838
370.855	69.7538	850
371.378	69.5076	847
369.243	68.769	838
369.283	68.4408	834
373.756	68.9331	840
384.514	70.5744	860
389.967	71.2309	868
388.683	70.6565	861
381.926	69.0973	842
376.454	67.7843	826
378.698	67.8663	827
380.946	67.9484	828
382.273	67.8663	827
385.919	68.1946	831
389.581	68.5228	835
392.324	68.687	837
388.953	67.7843	826
393.577	68.2766	832
403.454	69.6717	849
406.245	69.8358	851
406.166	69.5076	847
402.698	68.6049	836
409.828	69.5076	847
429.642	72.5439	884
429.112	72.1336	879
425.618	71.2309	868
423.062	70.4923	859
420.961	69.8358	851
423.795	70	853
424.142	69.7538	850
427.483	70	853
427.313	69.6717	849
427.127	69.3435	845
428.446	69.2614	844
429.76	69.1793	843
432.607	69.3435	845
435.976	69.5896	848
436.26	69.3435	845
436.531	69.0973	842
434.187	68.4408	834
431.807	67.7843	826
433.593	67.7843	826
442.231	68.8511	839
450.925	69.9179	852
456.486	70.4923	859
458.343	70.4923	859
453.771	69.5076	847
458.292	69.9179	852
457.973	69.5896	848
452.758	68.5228	835
450.752	67.9484	828
456.914	68.6049	836
461.465	69.0152	841
468.792	69.8358	851
477.821	70.9027	864
483.02	71.395	870
480.441	70.7385	862
481.745	70.6565	861
483.607	70.6565	861
486.595	70.8206	863
486.197	70.4923	859
488.054	70.4923	859
483.637	69.5896	848
479.745	68.769	838
478.109	68.2766	832
481.638	68.5228	835
481.706	68.2766	832
482.924	68.1946	831
482.387	67.8663	827
480.076	67.2919	820
479.498	66.9636	816
481.262	66.9636	816
480.067	66.5533	811
479.443	66.2251	807
482.977	66.4712	810
488.917	67.0457	817
494.286	67.5381	823
498.476	67.8663	827
500.869	67.9484	828
508.123	68.687	837
512.978	69.0973	842
509.907	68.4408	834
513.551	68.687	837
532.6	70.9847	865
531.381	70.5744	860
525.799	69.5896	848
520.166	68.6049	836
514.481	67.6201	824
516.262	67.6201	824
-734.561	83.8879	996
-716.23	82.0349	974
-699.461	80.3504	954
-697.398	80.3504	954
-690.234	79.7609	947
-694.727	80.5189	956
-697.008	81.0242	962
-691.316	80.6031	957
-689.248	80.6031	957
-688.615	80.7716	959
-692.269	81.4454	967
-698.03	82.3718	978
-706.589	83.6352	993
-703.024	83.4667	991
-700.881	83.4667	991
-693.098	82.7929	983
-691.676	82.8772	984
-690.25	82.9614	985
-696.504	83.9721	997
-700.617	84.7301	1006
-698.442	84.7301	1006
-696.267	84.7301	1006
-692.023	84.4774	1003
-685.04	83.8879	996
-677.402	83.2141	988
-669.115	82.456	979
-666.999	82.456	979
-664.882	82.456	979
-609.961	75.8865	901
-615.437	76.813	912
-625.573	78.329	930
-634.291	79.6766	946
-642.271	80.94	961
-639.527	80.8558	960
-642.764	81.5296	968
-640.671	81.5296	968
-631.982	80.6873	958
-634.514	81.2769	965
-637.015	81.8665	972
-638.18	82.2876	977
-638.021	82.5403	980
-636.552	82.6245	981
-629.257	81.9507	973
-623.286	81.4454	967
-621.196	81.4454	967
-609.502	80.182	952
-594.683	78.4975	932
-590.76	78.2448	929
-590.653	78.4975	932
-592.428	79.0028	938
-592.918	79.3397	942
-597.782	80.2662	953
-617.6	83.2141	988
-628.546	84.9828	1009
-632.573	85.825	1019
-630.37	85.825	1019
-628.784	85.9093	1020
-622.893	85.4039	1014
-610.907	84.0563	998
-596.55	82.3718	978
-582.28	80.6873	958
-587.477	81.698	970
-593.829	82.8772	984
-592.303	82.9614	985
-603.954	84.8986	1008
-599.387	84.5617	1004
-591.268	83.7194	994
-584.971	83.1298	987
-578.704	82.5403	980
-571.878	81.8665	972
-563.329	80.94	961
-565.34	81.5296	968
-563.247	81.5296	968
-568.691	82.6245	981
-570.036	83.1298	987
-573.656	83.9721	997
-565.768	83.1298	987
-550.5	81.1927	964
-539.883	79.9293	949
-543.499	80.7716	959
-547.072	81.6138	969
-542.727	81.2769	965
-526.635	79.1713	940
-517.906	78.1606	928
-517.012	78.329	930
-531.061	80.7716	959
-537.813	82.1191	975
-529.662	81.1927	964
-520.463	80.0978	951
-508.05	78.4975	932
-507.121	78.6659	934
-509.428	79.3397	942
-512.24	80.0978	951
-521.45	81.8665	972
-525.226	82.7929	983
-523.101	82.7929	983
-522.566	83.0456	986
-523.074	83.4667	991
-521.457	83.551	992
-516.695	83.1298	987
-509.348	82.2876	977
-502.564	81.5296	968
-501.505	81.698	970
-515.369	84.309	1001
-516.281	84.8143	1007
-508.999	83.9721	997
-494.135	81.8665	972
-487.984	81.1927	964
-487.916	81.5296	968
-486.325	81.6138	969
-482.232	81.2769	965
-477.16	80.7716	959
-471.619	80.182	952
-465.122	79.424	943
-460.137	78.9186	937
-471.801	81.2769	965
-475.556	82.2876	977
-468.599	81.4454	967
-460.719	80.4347	955
-451.451	79.1713	940
-451.331	79.5082	944
-455.954	80.6873	958
-462.884	82.2876	977
-462.187	82.5403	980
-457.722	82.1191	975
-450.941	81.2769	965
-448.855	81.2769	965
-444.454	80.8558	960
-440.535	80.5189	956
-435.717	80.0135	950
-432.294	79.7609	947
-432.064	80.0978	951
-433.173	80.6873	958
-430.652	80.6031	957
-425.001	79.9293	949
-424.732	80.2662	953
-425.333	80.7716	959
-419.729	80.0978	951
-415.038	79.5924	945
-410.373	79.0871	939
-407.909	79.0028	938
-405.881	79.0028	938
-402.562	78.7502	935
-403.539	79.3397	942
-402.781	79.5924	945
-398.194	79.0871	939
-391.523	78.1606	928
-386.579	77.571	921
-382.5	77.1499	916
-380.105	77.0657	915
-378.54	77.1499	916
-377.382	77.3183	918
-374.58	77.1499	916
-373.413	77.3183	918
-375.879	78.2448	929
-384.335	80.4347	955
-390.676	82.2034	976
-377.817	79.9293	949
-364.283	77.4868	920
-357.569	76.4761	908
-353.256	75.9707	902
-352.085	76.1392	904
-348.969	75.8865	901
-343.555	75.1285	892
-343.924	75.6338	898
-346.934	76.7288	911
-347.237	77.2341	917
-346.384	77.4868	920
-342.898	77.1499	916
-338.685	76.6445	910
-336.347	76.5603	909
-328.865	75.2969	894
-326.201	75.1285	892
-320.637	74.2862	882
-318.73	74.2862	882
-314.309	73.6967	875
-322.058	75.9707	902
-324.012	76.8972	913
-321.686	76.813	912
-313.053	75.2127	893
-311.82	75.3812	895
-313.694	76.3076	906
-309.671	75.8023	900
-307.041	75.6338	898
-307.478	76.2234	905
-307.21	76.6445	910
-326.71	82.0349	974
-321.605	81.2769	965
-319.851	81.3611	966
-317.104	81.1927	964
-314.367	81.0242	962
-310.989	80.6873	958
-307.628	80.3504	954
-302.043	79.424	943
-300.958	79.6766	946
-297.966	79.424	943
-294.358	79.0028	938
-287.656	77.7395	923
-274.828	74.7916	888
-270.757	74.202	881
-269.463	74.3705	883
-272.402	75.7181	899
-276.175	77.3183	918
-276.879	78.0764	927
-278.137	79.0028	938
-274.048	78.4133	931
-272.328	78.4975	932
-270.313	78.4975	932
-267.723	78.329	930
-264.57	77.9921	926
-255.479	75.8865	901
-256.345	76.7288	911
-257.168	77.571	921
-252.684	76.813	912
-244.389	74.8758	889
-240.286	74.202	881
-237.84	74.0336	879
-237.55	74.5389	885
-236.436	74.7916	888
-236.365	75.3812	895
-236.002	75.8865	901
-231.716	75.1285	892
-224.893	73.5282	873
-219.175	72.2649	858
-219.853	73.1071	868
-222.497	74.6231	886
-222.822	75.3812	895
-212.496	72.5175	861
-205.253	70.6646	839
-201.499	69.9908	831
-197.54	69.2328	822
-195.049	68.9801	819
-194.93	69.5697	826
-195.483	70.4119	836
-195.066	70.9173	842
-194.852	71.5068	849
-192.789	71.4226	848
-190.506	71.2542	846
-188.9	71.3384	847
-187.29	71.4226	848
-186.113	71.6753	851
-186.006	72.3491	859
-186.078	73.1071	868
-186.112	73.8651	877
-184.426	73.9493	878
-180.449	73.1071	868
-179.395	73.444	872
-175.068	72.4333	860
-171.396	71.6753	851
-167.763	70.9173	842
-167.52	71.5911	850
-166.462	71.928	854
-163.266	71.3384	847
-162.198	71.6753	851
-162.054	72.4333	860
-160.94	72.7702	864
-161.65	73.9493	878
-161.39	74.7074	887
-159.472	74.7074	887
-155.068	73.5282	873
-150.022	72.0122	855
-146.961	71.4226	848
-145.641	71.6753	851
-145.322	72.4333	860
-142.296	71.8437	853
-137.817	70.4961	837
-135.845	70.4119	836
-133.397	70.075	832
-131.282	69.9066	830
-128.084	69.1485	821
-124.77	68.3063	811
-127.871	71.0015	843
-125.002	70.4119	836
-123.637	70.6646	839
-122.259	70.9173	842
-121.583	71.5911	850
-120.873	72.2649	858
-120.128	72.9387	866
-117.983	72.7702	864
-115.174	72.1806	857
-113.322	72.1806	857
-111.599	72.2649	858
-108.337	71.3384	847
-106.129	71.0857	844
-104.552	71.2542	846
-103.451	71.7595	852
-102.206	72.1806	857
-101.29	72.8544	865
-99.6502	73.0229	867
-98.7909	73.7809	876
-97.7822	74.4547	884
-96.6304	75.0443	891
-94.2791	74.7074	887
-91.7369	74.202	881
-88.9148	73.444	872
-86.5307	73.0229	867
-84.8518	73.1913	869
-82.2094	72.5175	861
-79.7883	72.0122	855
-79.3985	73.3598	871
-79.3846	75.1285	892
-77.2827	74.96	890
-75.3587	74.96	890
-70.7945	72.2649	858
-67.4131	70.6646	839
-65.834	70.9173	842
-65.1542	72.1806	857
-63.9664	72.9387	866
-62.0226	72.8544	865
-59.3878	71.928	854
-57.07	71.3384	847
-54.5217	70.4119	836
-53.5973	71.5911	850
-52.6123	72.7702	864
-51.1557	73.3598	871
-49.4426	73.6124	874
-47.4444	73.444	872
-44.8802	72.3491	859
-42.5224	71.5068	849
-40.5434	71.2542	846
-38.7603	71.3384	847
-37.0165	71.5068	849
-35.6371	72.4333	860
-34.0136	72.9387	866
-32.2901	73.2756	870
-30.4094	73.2756	870
-28.2991	72.686	863
-26.2498	72.1806	857
-24.2264	71.6753	851
-22.6235	72.4333	860
-21.1508	73.7809	876
-19.389	74.2862	882
-17.4427	74.1178	880
-15.5228	74.0336	879
-13.4211	72.9387	866
-11.3357	71.5911	850
-9.48709	71.5068	849
-7.68785	71.8437	853
-5.96037	73.2756	870
-4.07968	73.2756	870
-2.17624	72.5175	861
-0.311346	71.6753	851
1.5175	71.1699	845
3.3204	70.6646	839
5.15244	70.9173	842
7.03885	71.5911	850
8.93896	72.0964	856
10.8398	72.4333	860
12.6841	72.3491	859
14.5918	72.6018	862
16.4361	72.5175	861
18.1911	72.0964	856
19.9713	71.8437	853
21.7641	71.6753	851
23.4373	71.1699	845
25.1742	70.9173	842
27.2829	71.6753	851
29.6017	72.8544	865
31.7262	73.444	872
33.9967	74.2862	882
35.7812	74.0336	879
37.5099	73.6967	875
39.3564	73.6124	874
41.9064	74.7916	888
44.2702	75.5496	897
46.1577	75.4654	896
47.7725	74.96	890
49.5848	74.7916	888
51.0984	74.202	881
51.9801	72.7702	864
53.3492	72.0964	856
55.0707	71.928	854
56.3836	71.2542	846
58.4189	71.5068	849
60.7509	72.0964	856
63.1133	72.686	863
64.6024	72.2649	858
66.2248	72.0122	855
68.4711	72.4333	860
70.412	72.5175	861
72.1053	72.3491	859
73.9622	72.3491	859
76.1722	72.686	863
78.0378	72.686	863
80.2737	73.0229	867
82.5269	73.3598	871
84.0221	73.0229	867
85.2028	72.4333	860
86.6569	72.0964	856
89.1277	72.6018	862
91.8356	73.2756	870
94.6858	74.0336	879
96.9156	74.2862	882
98.1499	73.7809	876
98.2163	72.4333	860
97.6317	70.6646	839
99.4454	70.6646	839
103.914	72.5175	861
107.495	73.6967	875
109.637	73.8651	877
109.498	72.5175	861
111.101	72.3491	859
112.957	72.3491	859
115.349	72.686	863
118.301	73.3598	871
118.942	72.6018	862
119.124	71.5911	850
122.1	72.2649	858
125.688	73.2756	870
124.49	71.5068	849
126.176	71.4226	848
126.349	70.4961	837
127.546	70.1592	833
128.259	69.5697	826
129.573	69.317	823
133.905	70.6646	839
136.042	70.833	841
135.238	69.4854	825
136.689	69.317	823
138.468	69.317	823
140.588	69.4854	825
143.407	69.9908	831
144.854	69.8223	829
147.53	70.2435	834
149.512	70.3277	835
150.774	70.075	832
150.922	69.317	823
152.515	69.2328	822
154.292	69.2328	822
155.499	68.9801	819
157.654	69.1485	821
161.371	69.9908	831
162.382	69.6539	827
164.169	69.6539	827
166.158	69.7381	828
170.99	71.0015	843
173.223	71.1699	845
172.563	70.1592	833
171.224	68.8959	818
172.358	68.6432	815
175.402	69.1485	821
178.255	69.5697	826
180.913	69.9066	830
182.927	69.9908	831
186.057	70.4961	837
187.867	70.4961	837
188.996	70.2435	834
188.054	69.2328	822
189.138	68.9801	819
191.608	69.2328	822
193.855	69.4012	824
193.5	68.6432	815
191.188	67.2114	798
193.155	67.2956	799
197.322	68.1378	809
200.547	68.6432	815
203.301	68.9801	819
206.074	69.317	823
208.358	69.4854	825
210.905	69.7381	828
215.007	70.4961	837
217.075	70.5804	838
215.491	69.4854	825
213.324	68.2221	810
213.482	67.7167	804
213.882	67.2956	799
215.609	67.2956	799
221.416	68.559	814
226.466	69.5697	826
230.739	70.3277	835
225.581	68.2221	810
232.945	69.9066	830
235.022	69.9908	831
235.109	69.4854	825
235.744	69.1485	821
242.437	70.5804	838
246.288	71.1699	845
246.647	70.7488	840
245.505	69.9066	830
245.809	69.4854	825
248.793	69.8223	829
251.19	69.9908	831
251.464	69.5697	826
250.797	68.8959	818
252.874	68.9801	819
257.754	69.8223	829
259.546	69.8223	829
259.131	69.2328	822
264.082	70.075	832
264.283	69.6539	827
255.453	66.8745	794
256.846	66.7902	793
255.626	66.0322	784
259.618	66.6218	791
258.024	65.7795	781
259.38	65.6953	780
261.401	65.7795	781
263.763	65.948	783
268.846	66.7902	793
274.313	67.7167	804
277.424	68.0536	808
279.862	68.2221	810
280.57	67.9694	807
278.466	67.0429	796
275.259	65.8638	782
272.7	64.8531	770
273.295	64.6004	767
276.746	65.0215	772
277.693	64.8531	770
280.083	65.0215	772
282.482	65.19	774
291.865	66.9587	795
296.168	67.5483	802
299.017	67.8009	805
299.636	67.5483	802
300.242	67.2956	799
301.214	67.1271	797
308.258	68.3063	811
311.158	68.559	814
309.458	67.8009	805
312.358	68.0536	808
313.715	67.9694	807
313.505	67.5483	802
315.632	67.6325	803
318.554	67.8852	806
322.68	68.3905	812
325.235	68.559	814
327.396	68.6432	815
328.754	68.559	814
330.108	68.4747	813
331.049	68.3063	811
333.212	68.3905	812
335.793	68.559	814
338.382	68.7274	816
341.396	68.9801	819
345.681	69.4854	825
348.306	69.6539	827
349.671	69.5697	826
351.031	69.4854	825
348.538	68.6432	815
346.431	67.8852	806
347.31	67.7167	804
353.823	68.6432	815
362.566	69.9908	831
361.293	69.4012	824
356.465	68.1378	809
356.442	67.8009	805
360.852	68.3063	811
365.288	68.8116	817
370.199	69.4012	824
371.98	69.4012	824
370.133	68.7274	816
366.428	67.7167	804
363.587	66.8745	794
364.383	66.706	792
368.406	67.1271	797
373.844	67.8009	805
375.118	67.7167	804
376.387	67.6325	803
378.123	67.6325	803
380.805	67.8009	805
385.396	68.3063	811
387.15	68.3063	811
390.821	68.6432	815
392.101	68.559	814
397.732	69.2328	822
416.033	72.0964	856
416.419	71.8437	853
414.831	71.2542	846
413.212	70.6646	839
412.552	70.2435	834
409.387	69.4012	824
407.176	68.7274	816
408.439	68.6432	815
409.194	68.4747	813
412.468	68.7274	816
412.709	68.4747	813
417.015	68.8959	818
420.32	69.1485	821
423.123	69.317	823
426.451	69.5697	826
428.236	69.5697	826
428.981	69.4012	824
425.011	68.4747	813
427.294	68.559	814
430.635	68.8116	817
436.106	69.4012	824
440.544	69.8223	829
438.601	69.2328	822
438.771	68.9801	819
437.314	68.4747	813
437.451	68.2221	810
438.117	68.0536	808
446.397	69.0643	820
450.902	69.4854	825
454.88	69.8223	829
458.876	70.1592	833
457.911	69.7381	828
466.364	70.7488	840
469.294	70.9173	842
470.555	70.833	841
472.373	70.833	841
470.808	70.3277	835
471.481	70.1592	833
470.441	69.7381	828
469.949	69.4012	824
467.151	68.7274	816
464.317	68.0536	808
466.641	68.1378	809
473.022	68.8116	817
476.531	69.0643	820
476.554	68.8116	817
475.393	68.3905	812
474.21	67.9694	807
475.954	67.9694	807
473.555	67.3798	800
472.908	67.0429	796
478.803	67.6325	803
486.523	68.4747	813
491.884	68.9801	819
491.243	68.6432	815
491.19	68.3905	812
495.374	68.7274	816
498.966	68.9801	819
500.736	68.9801	819
502.507	68.9801	819
504.277	68.9801	819
521.495	71.0857	844
517.119	70.2435	834
511.455	69.2328	822
496.374	66.9587	795
498.093	66.9587	795
-697.685	81.7214	946
-686.081	80.5984	933
-679.665	80.0801	927
-677.661	80.0801	927
-670.555	79.4754	920
-665.659	79.1298	916
-660.781	78.7843	912
-653.753	78.1796	905
-651.796	78.1796	905
-652.712	78.5251	909
-657.19	79.3026	918
-665.198	80.512	932
-665.318	80.7712	935
-673.938	82.067	950
-671.884	82.067	950
-667.715	81.8078	947
-661.451	81.2895	941
-668.526	82.4125	954
-676.245	83.6219	968
-683.902	84.8313	982
-681.779	84.8313	982
-678.964	84.7449	981
-672.014	84.1402	974
-654.089	82.1534	951
-637.635	80.3392	930
-624.69	78.9571	914
-615.219	78.0068	903
-597.647	76.0199	880
-595.745	76.0199	880
-600.591	76.8838	890
-608.757	78.1796	905
-610.823	78.6979	911
-607.517	78.5251	909
-602.888	78.1796	905
-601.595	78.266	906
-599.637	78.266	906
-602.956	78.9571	914
-604.268	79.389	919
-608.179	80.1665	928
-613.358	81.1167	939
-619.141	82.1534	951
-615.139	81.8942	948
-610.502	81.5486	944
-600.727	80.512	932
-598.712	80.512	932
-587.094	79.2162	917
-580.645	78.6115	910
-576.135	78.266	906
-572.275	78.0068	903
-563.375	77.0566	892
-563.335	77.3157	895
-570.182	78.5251	909
-581.344	80.3392	930
-589.924	81.8078	947
-602.775	83.8811	971
-600.676	83.8811	971
-590.564	82.7581	958
-581.735	81.8078	947
-567.446	80.0801	927
-558.732	79.1298	916
-556.752	79.1298	916
-560.223	79.9073	925
-564.861	80.8576	936
-561.034	80.5984	933
-562.013	81.0303	938
-561.179	81.2031	940
-557.958	81.0303	938
-556.523	81.1167	939
-554.493	81.1167	939
-548.933	80.5984	933
-548.088	80.7712	935
-542.563	80.2529	929
-540.555	80.2529	929
-540.865	80.5984	933
-540.581	80.8576	936
-545.462	81.8942	948
-542.266	81.7214	946
-535.653	81.0303	938
-527.367	80.0801	927
-520.83	79.389	919
-520.537	79.6481	922
-517.981	79.5618	921
-500.864	77.2293	894
-492.234	76.1927	882
-494.219	76.7974	889
-503.372	78.5251	909
-503.062	78.7843	912
-500.541	78.6979	911
-494.741	78.0932	904
-491.696	77.9204	902
-485.403	77.2293	894
-486.715	77.7477	900
-489.079	78.4387	908
-501.064	80.6848	934
-509.197	82.3261	953
-511.394	83.0172	961
-510.907	83.2764	964
-505.656	82.7581	958
-500.431	82.2397	952
-490.52	80.9439	937
-483.281	80.0801	927
-472.971	78.6979	911
-469.967	78.5251	909
-473.151	79.389	919
-476.804	80.3392	930
-461.009	78.0068	903
-461.599	78.4387	908
-466.723	79.6481	922
-467.25	80.0801	927
-467.756	80.512	932
-464.242	80.2529	929
-457.755	79.4754	920
-449.822	78.4387	908
-443.913	77.7477	900
-440.494	77.4885	897
-435.622	76.9702	891
-438.077	77.7477	900
-436.616	77.834	901
-437.08	78.266	906
-433.681	78.0068	903
-428.382	77.4021	896
-425.969	77.3157	895
-423.087	77.1429	893
-425.873	78.0068	903
-428.615	78.8707	913
-426.174	78.7843	912
-420.482	78.0932	904
-419.916	78.3524	907
-422.564	79.2162	917
-423.333	79.7345	923
-419.969	79.4754	920
-411.165	78.1796	905
-402.878	76.9702	891
-392.852	75.4152	873
-389.174	75.0697	869
-394.872	76.5382	886
-404.931	78.8707	913
-405.165	79.3026	918
-398.788	78.4387	908
-394.64	78.0068	903
-391.384	77.7477	900
-389.871	77.834	901
-389.645	78.1796	905
-388.546	78.3524	907
-388.716	78.7843	912
-385.896	78.6115	910
-371.694	76.1063	881
-367.271	75.588	875
-366.632	75.8472	878
-368.473	76.6246	887
-371.515	77.6613	899
-369.983	77.7477	900
-369.264	78.0068	903
-366.091	77.7477	900
-366.169	78.1796	905
-367.432	78.8707	913
-367.86	79.389	919
-364.281	79.0434	915
-352.008	76.7974	889
-346.542	76.0199	880
-339.157	74.8105	866
-333.001	73.8603	855
-328.829	73.3419	849
-326.223	73.1692	847
-328.605	74.1194	858
-327.893	74.3786	861
-327.546	74.7241	865
-328.688	75.4152	873
-326.427	75.3288	872
-327.519	76.0199	880
-324.137	75.6744	876
-312.679	73.4283	850
-311.573	73.6011	852
-311.185	73.9467	856
-306.805	73.3419	849
-302.814	72.8236	843
-309.204	74.8105	866
-312.656	76.1063	881
-308.282	75.5016	874
-309.898	76.3655	884
-308.336	76.4519	885
-304.691	76.0199	880
-302.789	76.0199	880
-299.519	75.6744	876
-295.927	75.2424	871
-291.343	74.5514	863
-283.775	73.0828	846
-281.28	72.91	844
-279.455	72.91	844
-288.157	75.6744	876
-295.087	78.0068	903
-296.706	78.9571	914
-292.15	78.266	906
-290.832	78.4387	908
-292.051	79.3026	918
-289.434	79.1298	916
-286.199	78.7843	912
-277.059	76.7974	889
-270.495	75.5016	874
-267.069	75.0697	869
-262.749	74.3786	861
-258.767	73.7739	854
-256.921	73.7739	854
-257.763	74.5514	863
-263.607	76.7974	889
-266.101	78.0932	904
-261.809	77.4021	896
-258.712	77.0566	892
-252.465	75.7608	877
-248.284	75.0697	869
-247.823	75.5016	874
-245.09	75.2424	871
-242.928	75.1561	870
-240.77	75.0697	869
-236.417	74.2922	860
-232.649	73.6875	853
-230.805	73.6875	853
-229.766	73.9467	856
-227.117	73.6875	853
-228.178	74.6377	864
-228.93	75.5016	874
-227.3	75.588	875
-221.029	74.1194	858
-214.577	72.5645	840
-214.027	72.9964	845
-213.707	73.5147	851
-212.366	73.6875	853
-209.781	73.4283	850
-201.583	71.1823	824
-198.347	70.664	818
-195.377	70.232	813
-192.905	69.9729	810
-191.862	70.232	813
-191.274	70.664	818
-191.359	71.3551	826
-190.95	71.8734	832
-189.152	71.8734	832
-187.578	71.9598	833
-185.555	71.8734	832
-183.756	71.8734	832
-181.083	71.5278	828
-178.86	71.3551	826
-176.646	71.1823	824
-174.864	71.1823	824
-174.553	71.787	831
-173.589	72.1325	835
-171.372	71.9598	833
-168.757	71.6142	829
-167.166	71.7006	830
-162.981	70.664	818
-161.016	70.5776	817
-159.64	70.7504	819
-155.556	69.7137	807
-154.193	69.8865	809
-152.444	69.8865	809
-151.999	70.4912	816
-152.444	71.5278	828
-153.202	72.7372	842
-151.741	72.91	844
-148.496	72.2189	836
-144.232	71.0095	822
-140.202	69.8865	809
-138.796	70.0593	811
-137.887	70.4912	816
-137.458	71.1823	824
-135.183	70.9231	821
-132.595	70.4912	816
-131.313	70.7504	819
-129.226	70.5776	817
-126.524	70.0593	811
-123.693	69.4546	804
-121.349	69.109	800
-120.965	69.8865	809
-121.132	71.0095	822
-120.662	71.787	831
-118.865	71.787	831
-116.928	71.7006	830
-115.411	71.8734	832
-114.023	72.1325	835
-112.352	72.2189	836
-108.958	71.1823	824
-107.177	71.1823	824
-105.651	71.3551	826
-103.363	71.0095	822
-100.226	70.0593	811
-99.3231	70.664	818
-98.0319	71.0095	822
-96.4891	71.1823	824
-94.8228	71.2687	825
-94.1672	72.1325	835
-92.8046	72.4781	839
-91.4247	72.8236	843
-89.0709	72.3917	838
-86.4264	71.7006	830
-84.0204	71.1823	824
-83.337	72.1325	835
-82.0201	72.5645	840
-79.6314	72.0462	834
-77.2686	71.5278	828
-74.8406	70.9231	821
-72.3539	70.232	813
-70.5964	70.232	813
-69.601	71.0095	822
-68.4842	71.7006	830
-66.6899	71.7006	830
-64.583	71.3551	826
-62.7974	71.3551	826
-61.455	71.8734	832
-59.7998	72.0462	834
-57.232	71.0959	823
-54.6444	70.0593	811
-51.6521	68.4179	792
-50.6336	69.3682	803
-49.8721	70.7504	819
-48.2778	71.0095	822
-46.2746	70.664	818
-44.9416	71.3551	826
-43.2083	71.4415	827
-41.671	71.8734	832
-40.0162	72.1325	835
-38.0281	71.787	831
-35.8393	71.0095	822
-33.8138	70.4912	816
-32.0105	70.4048	815
-30.4343	70.8367	820
-29.0811	71.8734	832
-27.4793	72.3917	838
-25.5759	72.1325	835
-23.714	71.9598	833
-21.9922	72.2189	836
-20.4989	73.3419	849
-18.8175	73.9467	856
-17.1058	74.5514	863
-15.2932	74.8105	866
-13.1732	73.4283	850
-11.189	72.4781	839
-9.29713	71.8734	832
-7.49858	71.8734	832
-5.72744	72.2189	836
-3.939	72.5645	840
-2.12822	72.7372	842
-0.306955	72.4781	839
1.49954	72.1325	835
3.27687	71.5278	828
5.05453	71.3551	826
6.84839	71.4415	827
8.63613	71.4415	827
10.4113	71.3551	826
12.2559	71.7006	830
14.1855	72.3917	838
16.1307	72.9964	845
17.8298	72.4781	839
19.4094	71.6142	829
21.2526	71.787	831
23.1322	72.0462	834
24.965	72.1325	835
26.5776	71.6142	829
28.4724	71.8734	832
30.6347	72.7372	842
32.6476	73.1692	847
34.5193	73.2556	848
36.2238	72.9964	845
38.0055	72.91	844
39.7356	72.7372	842
42.7896	74.8969	867
44.9729	75.4152	873
46.7527	75.2424	871
48.0213	74.2922	860
49.1844	73.2556	848
50.5362	72.5645	840
52.4767	72.7372	842
54.4903	72.9964	845
56.2503	72.91	844
58.2812	73.1692	847
60.1832	73.2556	848
62.0163	73.2556	848
63.6236	72.9964	845
65.5277	73.0828	846
67.5157	73.2556	848
69.5124	73.4283	850
71.2659	73.3419	849
72.5846	72.8236	843
73.8773	72.3053	837
75.1441	71.787	831
76.9405	71.787	831
79.4002	72.3917	838
80.9209	72.1325	835
83.1223	72.4781	839
85.3409	72.8236	843
87.887	73.4283	850
90.1467	73.7739	854
92.5314	74.2058	859
93.0697	73.1692	847
93.6682	72.2189	836
93.8765	71.0095	822
95.188	70.664	818
98.3786	71.7006	830
101.018	72.3053	837
103.687	72.91	844
105.636	72.9964	845
106.7	72.4781	839
107.608	71.8734	832
108.749	71.4415	827
110.938	71.7006	830
112.597	71.6142	829
114.251	71.5278	828
116.041	71.5278	828
118.969	72.2189	836
119.187	71.2687	825
120.237	70.8367	820
121.861	70.7504	819
122.575	70.1457	812
124.024	69.9729	810
126.396	70.3184	814
127.211	69.8001	808
129.436	70.0593	811
129.895	69.3682	803
129.664	68.3315	791
131.208	68.2452	790
133.757	68.6771	795
135.476	68.6771	795
137.367	68.7635	796
139.961	69.1954	801
142.4	69.541	805
144.857	69.8865	809
147.149	70.1457	812
148.904	70.1457	812
149.547	69.6273	806
150.163	69.109	800
151.133	68.7635	796
151.701	68.2452	790
157.293	69.9729	810
158.062	69.541	805
158.015	68.7635	796
158.934	68.4179	792
161.457	68.7635	796
163.793	69.0226	799
163.863	68.3315	791
164.526	67.8996	786
168.34	68.7635	796
171.77	69.4546	804
174.155	69.7137	807
175.028	69.3682	803
175.443	68.8499	797
178.277	69.2818	802
181.358	69.8001	808
183.104	69.8001	808
184.165	69.541	805
184.981	69.1954	801
189.277	70.1457	812
191.032	70.1457	812
191.363	69.6273	806
187.595	67.6405	783
188.562	67.3813	780
190.492	67.4677	781
194.887	68.4179	792
199.082	69.2818	802
202.067	69.7137	807
203.054	69.4546	804
203.009	68.8499	797
200.622	67.4677	781
200.497	66.863	774
203.737	67.3813	780
208.057	68.2452	790
210.03	68.3315	791
210.937	68.0724	788
211.561	67.7268	784
210.808	66.9494	775
211.387	66.6038	771
215.264	67.2949	779
218.062	67.6405	783
225.929	69.541	805
229.649	70.1457	812
230.834	69.9729	810
231.149	69.541	805
231.443	69.109	800
231.715	68.6771	795
234.608	69.0226	799
238.11	69.541	805
242.532	70.3184	814
241.591	69.541	805
242.122	69.1954	801
240.809	68.3315	791
240.373	67.7268	784
242.994	67.986	787
246.56	68.5043	793
247.335	68.2452	790
249.358	68.3315	791
249.481	67.8996	786
244.789	66.1719	766
243.228	65.308	756
244.538	65.2216	755
244.214	64.7033	749
247.802	65.2216	755
251.747	65.8263	762
254.392	66.0855	765
257.384	66.431	769
260.057	66.6902	772
264.777	67.4677	781
270.219	68.4179	792
271.931	68.4179	792
274.334	68.5907	794
274.659	68.2452	790
272.169	67.2085	778
269.979	66.2583	767
268.804	65.5672	759
269.732	65.3944	757
271.727	65.4808	758
273.366	65.4808	758
273.553	65.1353	754
275.548	65.2216	755
278.281	65.4808	758
285.09	66.6902	772
297.531	69.1954	801
299.262	69.1954	801
298.739	68.6771	795
297.812	68.0724	788
299.136	67.986	787
300.072	67.8132	785
302.922	68.0724	788
303.853	67.8996	786
306.329	68.0724	788
307.642	67.986	787
310.129	68.1588	789
312.23	68.2452	790
313.938	68.2452	790
313.648	67.8132	785
313.336	67.3813	780
315.022	67.3813	780
320.769	68.2452	790
325.334	68.8499	797
327.467	68.9362	798
327.542	68.5907	794
329.673	68.6771	795
328.474	68.0724	788
331.853	68.4179	792
333.987	68.5043	793
336.548	68.6771	795
339.968	69.0226	799
342.978	69.2818	802
342.133	68.7635	796
340.398	68.0724	788
342.97	68.2452	790
351.658	69.6273	806
351.647	69.2818	802
350.296	68.6771	795
349.358	68.1588	789
352.843	68.5043	793
357.24	69.0226	799
362.112	69.6273	806
362.5	69.3682	803
361.515	68.8499	797
358.224	67.8996	786
359.007	67.7268	784
362.082	67.986	787
366.095	68.4179	792
366.878	68.2452	790
366.72	67.8996	786
361.857	66.6902	772
362.584	66.5174	770
367.56	67.1221	777
373.041	67.8132	785
377.602	68.3315	791
380.751	68.5907	794
383.43	68.7635	796
386.603	69.0226	799
402.911	71.6142	829
406.167	71.8734	832
407.475	71.787	831
405.824	71.1823	824
404.143	70.5776	817
400.941	69.7137	807
399.691	69.1954	801
398.416	68.6771	795
399.128	68.5043	793
403.369	68.9362	798
406.617	69.1954	801
409.878	69.4546	804
409.568	69.109	800
411.298	69.109	800
414.576	69.3682	803
417.349	69.541	805
412.842	68.5043	793
410.897	67.8996	786
410.496	67.5541	782
410.078	67.2085	778
413.348	67.4677	781
418.224	67.986	787
425.261	68.8499	797
430.734	69.4546	804
433.01	69.541	805
430.97	68.9362	798
432.153	68.8499	797
438.775	69.6273	806
444.89	70.3184	814
445.552	70.1457	812
445.104	69.8001	808
446.298	69.7137	807
449.153	69.8865	809
455.36	70.5776	817
457.686	70.664	818
460.016	70.7504	819
460.095	70.4912	816
462.425	70.5776	817
464.759	70.664	818
467.098	70.7504	819
463.716	69.9729	810
461.444	69.3682	803
459.142	68.7635	796
459.126	68.5043	793
467.233	69.4546	804
473.054	70.0593	811
474.222	69.9729	810
475.973	69.9729	810
474.185	69.4546	804
471.779	68.8499	797
469.344	68.2452	790
473.436	68.5907	794
479.94	69.2818	802
484.677	69.7137	807
484.01	69.3682	803
478.487	68.3315	791
481.411	68.5043	793
486.781	69.0226	799
490.954	69.3682	803
492.076	69.2818	802
491.963	69.0226	799
494.308	69.109	800
500.377	69.7137	807
498.389	69.1954	801
493.252	68.2452	790
494.96	68.2452	790
-662.285	79.5159	898
-664.02	79.9586	903
-662.068	79.9586	903
-660.116	79.9586	903
-655.977	79.693	900
-648.218	78.9846	892
-641.943	78.4533	886
-638.583	78.2762	884
-636.672	78.2762	884
-634.761	78.2762	884
-640.009	79.1617	894
-641.645	79.6045	899
-634.721	78.9846	892
-632.792	78.9846	892
-630.864	78.9846	892
-633.871	79.6045	899
-643.878	81.1098	916
-644.701	81.464	920
-637.822	80.8441	913
-636.544	80.9327	914
-634.569	80.9327	914
-630.516	80.667	911
-622.338	79.8701	902
-619.7	79.7816	901
-614.324	79.3388	896
-607.603	78.719	889
-587.286	76.3282	862
-585.422	76.3282	862
-586.944	76.7709	867
-590.468	77.4793	875
-593.285	78.0991	882
-593.39	78.3648	885
-579.447	76.7709	867
-578.239	76.8595	868
-583.003	77.745	878
-581.105	77.745	878
-587.783	78.8961	891
-589.144	79.3388	896
-590.484	79.7816	901
-591.803	80.2243	906
-589.844	80.2243	906
-585.29	79.8701	902
-582.047	79.693	900
-578.168	79.4274	897
-576.229	79.4274	897
-573.009	79.2503	895
-568.522	78.8961	891
-563.416	78.4533	886
-546.291	76.3282	862
-543.164	76.1511	860
-545.711	76.7709	867
-543.837	76.7709	867
-555.715	78.719	889
-563.76	80.1357	905
-564.287	80.4899	909
-559.229	80.0472	904
-557.275	80.0472	904
-549.178	79.1617	894
-545.409	78.8961	891
-542.263	78.719	889
-543.38	79.1617	894
-548.11	80.1357	905
-551.585	80.9327	914
-545.4	80.3128	907
-534.452	78.9846	892
-527.747	78.2762	884
-528.216	78.6304	888
-525.703	78.5419	887
-521.424	78.1877	883
-524.81	78.9846	892
-526.399	79.5159	898
-523.29	79.3388	896
-521.353	79.3388	896
-519.416	79.3388	896
-519.212	79.6045	899
-525.324	80.8441	913
-524.497	81.0212	915
-516.237	80.0472	904
-510.301	79.4274	897
-503.261	78.6304	888
-494.566	77.5679	876
-488.736	76.948	869
-483.496	76.4167	863
-483.863	76.7709	867
-486.992	77.5679	876
-487.313	77.9221	880
-480.998	77.2137	872
-471.421	75.974	858
-469.019	75.8855	857
-474.253	77.0366	870
-476.173	77.6564	877
-474.277	77.6564	877
-473.997	77.9221	880
-477.459	78.8075	890
-490.496	81.2869	918
-489.576	81.464	920
-480.697	80.3128	907
-466.069	78.1877	883
-466.788	78.6304	888
-463.822	78.4533	886
-457.214	77.6564	877
-453.761	77.3908	874
-449.804	77.0366	870
-449.468	77.3022	873
-447.068	77.2137	872
-441.609	76.5938	865
-439.231	76.5053	864
-444.45	77.745	878
-447.592	78.6304	888
-446.175	78.719	889
-440.755	78.0991	882
-440.341	78.3648	885
-434.96	77.745	878
-428.623	76.948	869
-424.78	76.5938	865
-424.377	76.8595	868
-421.527	76.6824	866
-420.14	76.7709	867
-425.984	78.1877	883
-425.996	78.5419	887
-418.82	77.5679	876
-412.167	76.6824	866
-410.295	76.6824	866
-411.724	77.3022	873
-409.837	77.3022	873
-407.015	77.1251	871
-406.528	77.3908	874
-403.712	77.2137	872
-400.445	76.948	869
-399.025	77.0366	870
-393.949	76.4167	863
-390.72	76.1511	860
-386.148	75.6198	854
-381.152	75	847
-378.873	74.9114	846
-381.056	75.7084	855
-388.521	77.5679	876
-388.834	78.0106	881
-386.491	77.9221	880
-385.462	78.0991	882
-382.251	77.8335	879
-379.918	77.745	878
-378.881	77.9221	880
-376.979	77.9221	880
-373.798	77.6564	877
-361.725	75.5313	853
-357.35	75	847
-357.617	75.4427	852
-355.775	75.4427	852
-349.78	74.5572	842
-347.133	74.3801	840
-343.673	74.0259	836
-343.501	74.3801	840
-348.194	75.7969	856
-349.58	76.5053	864
-353.347	77.745	878
-353.45	78.1877	883
-351.939	78.2762	884
-345.673	77.3022	873
-337.485	75.8855	857
-329.758	74.5572	842
-322.485	73.3176	828
-316.435	72.3435	817
-314.668	72.3435	817
-320.562	74.1145	837
-321.038	74.6458	843
-317.322	74.203	838
-315.887	74.2916	839
-313.699	74.203	838
-312.26	74.2916	839
-309.706	74.1145	837
-308.632	74.2916	839
-308.647	74.7343	844
-306.823	74.7343	844
-302.83	74.203	838
-299.582	73.8489	834
-297.779	73.8489	834
-292.782	73.0519	825
-290.646	72.9634	824
-293.772	74.203	838
-292.309	74.2916	839
-289.803	74.1145	837
-286.617	73.7603	833
-283.791	73.4947	830
-280.638	73.1405	826
-277.502	72.7863	822
-275.054	72.6092	820
-274.948	73.0519	825
-272.171	72.7863	822
-268.749	72.3435	817
-265.349	71.9008	812
-260.997	71.1924	804
-273.125	75	847
-271.614	75.0885	848
-270.417	75.2656	850
-267.948	75.0885	848
-263.604	74.3801	840
-263.035	74.7343	844
-261.829	74.9114	846
-261.23	75.2656	850
-255.425	74.1145	837
-250.889	73.3176	828
-246.692	72.6092	820
-244.621	72.5206	819
-247.891	74.0259	836
-247.262	74.3801	840
-248.076	75.1771	849
-244.5	74.6458	843
-240.375	73.9374	835
-238.855	74.0259	836
-240.734	75.1771	849
-239.743	75.4427	852
-236.505	75	847
-230.241	73.5832	831
-227.895	73.4061	829
-222.83	72.3435	817
-218.088	71.3695	806
-215.003	70.9268	801
-214.337	71.281	805
-215.237	72.1664	815
-213.738	72.255	816
-211.454	72.0779	814
-209.179	71.9008	812
-212.022	73.4947	830
-209.721	73.3176	828
-206.425	72.7863	822
-203.652	72.4321	818
-202.871	72.7863	822
-199.381	72.1664	815
-196.165	71.6352	809
-192.974	71.1039	803
-190.762	70.9268	801
-189.03	70.9268	801
-188.468	71.3695	806
-187.421	71.6352	809
-186.36	71.9008	812
-184.832	71.9893	813
-183.975	72.3435	817
-180.648	71.7237	810
-178.456	71.5466	808
-174.741	70.7497	799
-172.147	70.3955	795
-171.072	70.6611	798
-169.559	70.7497	799
-168.042	70.8382	800
-167.144	71.1924	804
-165.612	71.281	805
-162.854	70.8382	800
-158.506	69.6871	787
-156.008	69.3329	783
-154.906	69.5986	786
-152.623	69.3329	783
-149.966	68.8902	778
-148.475	68.9787	779
-148.298	69.6871	787
-148.087	70.3955	795
-148.21	71.281	805
-147.743	71.9008	812
-147.247	72.5206	819
-145.121	72.3435	817
-142.126	71.7237	810
-138.642	70.8382	800
-136.742	70.7497	799
-135.522	71.0153	802
-133.788	71.0153	802
-131.725	70.8382	800
-129.996	70.8382	800
-128.266	70.8382	800
-127.011	71.1039	803
-124.495	70.6611	798
-122.463	70.484	796
-120.742	70.484	796
-119.918	71.0153	802
-119.216	71.6352	809
-118.484	72.255	816
-117.721	72.8748	823
-115.66	72.6977	821
-113.608	72.5206	819
-110.199	71.4581	807
-108.186	71.281	805
-106.578	71.3695	806
-104.835	71.3695	806
-102.709	71.1039	803
-100.471	70.7497	799
-98.0018	70.2184	793
-96.2876	70.2184	793
-95.5274	70.9268	801
-94.2643	71.281	805
-93.2137	71.8123	811
-92.5883	72.6977	821
-91.3666	73.1405	826
-88.9303	72.6092	820
-85.9885	71.6352	809
-82.9902	70.5726	797
-80.9614	70.3069	794
-79.245	70.3069	794
-78.4074	71.1039	803
-76.6715	71.1039	803
-74.469	70.6611	798
-72.4705	70.3955	795
-70.752	70.3955	795
-69.5544	70.9268	801
-68.8389	71.9893	813
-68.0716	73.0519	825
-66.2882	73.0519	825
-63.4883	71.9008	812
-61.2769	71.3695	806
-59.7561	71.6352	809
-58.079	71.7237	810
-56.4671	71.9008	812
-54.3749	71.4581	807
-51.8478	70.3955	795
-50.1922	70.484	796
-48.5933	70.6611	798
-47.3381	71.3695	806
-45.7655	71.6352	809
-44.2887	72.0779	814
-42.7381	72.4321	818
-41.1701	72.7863	822
-39.3453	72.6977	821
-37.3875	72.3435	817
-35.4033	71.9008	812
-33.3579	71.281	805
-31.5392	71.1039	803
-29.9518	71.4581	807
-28.3821	71.9008	812
-26.8891	72.6092	820
-24.9021	71.9893	813
-22.9738	71.4581	807
-21.2819	71.6352	809
-19.7262	72.3435	817
-17.9821	72.4321	818
-16.1544	72.1664	815
-14.4985	72.6977	821
-12.7237	72.6977	821
-10.9623	72.7863	822
-9.05129	71.7237	810
-7.26425	71.3695	806
-5.53561	71.5466	808
-3.81708	72.0779	814
-2.07008	72.5206	819
-0.301102	72.8748	823
1.4744	72.6977	821
3.17793	71.1039	803
4.89543	70.8382	800
6.66621	71.281	805
8.3855	71.1039	803
10.0835	70.8382	800
11.8867	71.281	805
13.6608	71.4581	807
15.4816	71.8123	811
17.2985	72.0779	814
19.2455	72.7863	822
21.3037	73.7603	833
23.3263	74.4687	841
25.0546	74.203	838
26.6097	73.4947	830
28.1301	72.7863	822
29.8707	72.6977	821
31.8767	73.229	827
33.8273	73.5832	831
35.4951	73.3176	828
37.1048	72.9634	824
38.8861	72.9634	824
40.8648	73.3176	828
42.8092	73.5832	831
44.6593	73.6718	832
46.2903	73.4061	829
48.0824	73.4061	829
50.0549	73.6718	832
51.6042	73.3176	828
53.4586	73.4061	829
55.3839	73.5832	831
57.7308	74.2916	839
59.8993	74.7343	844
61.0656	73.9374	835
62.4189	73.4061	829
64.3658	73.5832	831
66.4011	73.8489	834
68.4493	74.1145	837
70.2586	74.1145	837
71.7236	73.7603	833
73.2595	73.4947	830
73.6973	72.1664	815
75.6443	72.3435	817
77.6947	72.6092	820
79.6611	72.7863	822
81.438	72.7863	822
84.0248	73.4947	830
86.5428	74.1145	837
88.5633	74.2916	839
90.1615	74.1145	837
90.4326	72.8748	823
90.531	71.5466	808
92.1635	71.4581	807
93.908	71.4581	807
97.3119	72.6977	821
99.0866	72.6977	821
100.984	72.7863	822
102.636	72.6977	821
103.902	72.3435	817
105.022	71.9008	812
105.33	70.9268	801
106.394	70.484	796
107.979	70.3955	795
111.353	71.4581	807
110.995	70.1298	792
113.561	70.6611	798
116.009	71.1039	803
118.771	71.7237	810
120.076	71.4581	807
122.122	71.6352	809
123.105	71.1924	804
124.843	71.1924	804
124.062	69.7757	788
124.01	68.8016	777
124.719	68.2703	771
126.222	68.1818	770
127.388	67.9162	767
129.046	67.9162	767
132.238	68.7131	776
135.814	69.6871	787
138.039	69.9528	790
140.278	70.2184	793
141.813	70.1298	792
144.612	70.6611	798
146.154	70.5726	797
146.763	70.0413	791
147.159	69.4215	784
147.905	68.9787	779
149.589	68.9787	779
152.05	69.3329	783
152.76	68.8902	778
154.244	68.8016	777
155.321	68.536	774
156.589	68.3589	772
156.618	67.6505	764
157.441	67.2963	760
160.13	67.7391	765
162.418	68.0047	768
165.36	68.536	774
167.465	68.7131	776
169.361	68.8016	777
171.481	68.9787	779
173.831	69.2444	782
175.522	69.2444	782
176.532	68.9787	779
178.674	69.1558	781
180.131	69.0673	780
185.78	70.5726	797
188.444	70.9268	801
186.852	69.6871	787
184.48	68.1818	770
184.452	67.562	763
185.614	67.3849	761
189.966	68.3589	772
194.117	69.2444	782
197.811	69.9528	790
194.215	68.0932	769
191.802	66.6765	753
194.2	66.9421	756
196.611	67.2078	759
200.864	68.0932	769
204.37	68.7131	776
206.844	68.9787	779
205.316	67.9162	767
205.894	67.562	763
205.912	67.0307	757
204.532	66.0566	746
207.803	66.5879	752
211.378	67.2078	759
216.948	68.4474	773
223.144	69.8642	789
228.269	70.9268	801
225.12	69.4215	784
227.393	69.5986	786
230.258	69.9528	790
230.204	69.4215	784
230.715	69.0673	780
234.487	69.6871	787
235.888	69.5986	786
236.681	69.3329	783
236.851	68.8902	778
236.387	68.2703	771
237.436	68.0932	769
240.964	68.6245	775
242.952	68.7131	776
240.847	67.6505	764
239.959	66.9421	756
239.356	66.3223	749
240.332	66.1452	747
241.299	65.9681	745
241.279	65.5254	740
242.551	65.4368	739
247.122	66.2337	748
250.401	66.6765	753
253.033	66.9421	756
255.004	67.0307	757
257.658	67.2963	760
263.395	68.3589	772
265.064	68.3589	772
267.769	68.6245	775
268.054	68.2703	771
265.522	67.2078	759
263.291	66.2337	748
263.492	65.8796	744
266.169	66.1452	747
268.501	66.3223	749
271.562	66.6765	753
272.827	66.5879	752
273.723	66.4108	750
276.446	66.6765	753
281.028	67.3849	761
292.33	69.6871	787
294.405	69.7757	788
292.727	68.9787	779
288.742	67.6505	764
286.972	66.8536	755
286.693	66.4108	750
289.852	66.765	754
294.188	67.3849	761
300.109	68.3589	772
302.56	68.536	774
303.84	68.4474	773
307.487	68.8902	778
308.374	68.7131	776
308.054	68.2703	771
304.097	67.0307	757
302.906	66.4108	750
310.618	67.7391	765
318.803	69.1558	781
321.722	69.4215	784
322.592	69.2444	782
321.794	68.7131	776
319.72	67.9162	767
319.702	67.562	763
320.088	67.2963	760
320.038	66.9421	756
324.65	67.562	763
328.01	67.9162	767
329.668	67.9162	767
327.871	67.2078	759
328.643	67.0307	757
332.897	67.562	763
336.739	68.0047	768
339.721	68.2703	771
340.945	68.1818	770
343.944	68.4474	773
349.639	69.2444	782
352.228	69.4215	784
353.02	69.2444	782
353.35	68.9787	779
355.034	68.9787	779
357.634	69.1558	781
361.162	69.51	785
361.935	69.3329	783
358.983	68.4474	773
355.056	67.3849	761
353.888	66.8536	755
352.695	66.3223	749
356.206	66.6765	753
362.586	67.562	763
370.442	68.7131	776
375.955	69.4215	784
379.577	69.7757	788
380.313	69.5986	786
386.386	70.3955	795
391.034	70.9268	801
393.746	71.1039	803
394.004	70.8382	800
396.228	70.9268	801
394.979	70.3955	795
393.703	69.8642	789
393.905	69.5986	786
392.585	69.0673	780
396.293	69.4215	784
396.972	69.2444	782
396.114	68.8016	777
393.186	68.0047	768
396.388	68.2703	771
402.185	68.9787	779
404.388	69.0673	780
395.662	67.2963	760
392.077	66.4108	750
392.123	66.1452	747
395.847	66.4994	751
401.704	67.2078	759
410.785	68.4474	773
415.657	68.9787	779
422.163	69.7757	788
424.942	69.9528	790
422.869	69.3329	783
424.02	69.2444	782
428.432	69.6871	787
430.68	69.7757	788
435.676	70.3069	794
435.739	70.0413	791
434.684	69.5986	786
435.273	69.4215	784
438.082	69.5986	786
447.615	70.8382	800
449.906	70.9268	801
449.946	70.6611	798
451.671	70.6611	798
457.941	71.3695	806
461.394	71.6352	809
462.571	71.5466	808
459.146	70.7497	799
455.105	69.8642	789
448.126	68.536	774
449.218	68.4474	773
453.222	68.8016	777
460.756	69.6871	787
462.457	69.6871	787
464.748	69.7757	788
465.268	69.5986	786
456.867	68.0932	769
456.145	67.7391	765
467.373	69.1558	781
471.464	69.51	785
466.531	68.536	774
468.204	68.536	774
471.698	68.8016	777
478.252	69.51	785
481.171	69.6871	787
481.646	69.51	785
481.495	69.2444	782
482.568	69.1558	781
485.496	69.3329	783
487.811	69.4215	784
489.506	69.4215	784
491.201	69.4215	784
-642.372	79.0078	871
-643.43	79.3706	875
-643.738	79.6428	878
-641.84	79.6428	878
-637.027	79.2799	874
-625.69	78.1007	861
-615.859	77.1029	850
-616.911	77.4657	854
-615.065	77.4657	854
-618.964	78.1914	862
-621.396	78.7357	868
-618.805	78.645	867
-617.643	78.7357	868
-618.604	79.0985	872
-616.719	79.0985	872
-618.359	79.552	877
-618.572	79.8242	880
-614.568	79.552	877
-609.878	79.1892	873
-602.419	78.4635	865
-600.549	78.4635	865
-595.219	78.01	860
-598.879	78.7357	868
-597.003	78.7357	868
-592.384	78.3728	864
-573.429	76.1051	839
-575.704	76.6494	845
-573.877	76.6494	845
-580.174	77.7379	857
-580.346	78.01	860
-577.814	77.9193	859
-569.252	77.0122	849
-569.422	77.2843	852
-570.245	77.6472	856
-562.418	76.8308	847
-560.587	76.8308	847
-562.055	77.2843	852
-560.871	77.375	853
-566.891	78.4635	865
-555.876	77.1936	851
-546.875	76.1958	840
-553.495	77.375	853
-550.358	77.1936	851
-548.518	77.1936	851
-546.678	77.1936	851
-540.357	76.5586	844
-530.876	75.4701	832
-529.713	75.5608	833
-531.715	76.1051	839
-533.691	76.6494	845
-537.529	77.4657	854
-534.428	77.2843	852
-535.712	77.7379	857
-538.22	78.3728	864
-547.526	80.0056	882
-546.238	80.0963	883
-544.329	80.0963	883
-531.363	78.4635	865
-523.372	77.5564	855
-517.864	77.0122	849
-522.715	78.01	860
-520.25	77.9193	859
-512.962	77.1029	850
-506.915	76.4679	843
-498.502	75.4701	832
-494.912	75.198	829
-499.069	76.1051	839
-503.182	77.0122	849
-494.851	76.0144	838
-493.628	76.1051	839
-496.503	76.8308	847
-503.433	78.1914	862
-501.569	78.1914	862
-499.126	78.1007	861
-496.11	77.9193	859
-494.253	77.9193	859
-497.555	78.7357	868
-500.818	79.552	877
-498.354	79.4613	876
-493.06	78.9171	870
-482.146	77.4657	854
-472.426	76.1958	840
-468.369	75.833	836
-470.468	76.4679	843
-478.097	78.01	860
-475.684	77.9193	859
-468.311	77.0122	849
-460.432	76.0144	838
-457.526	75.833	836
-461.715	76.8308	847
-462.599	77.2843	852
-462.379	77.5564	855
-456.761	76.9215	848
-454.928	76.9215	848
-449.889	76.3772	842
-441.15	75.198	829
-438.828	75.1073	828
-439.15	75.4701	832
-443.134	76.4679	843
-442.882	76.7401	846
-444.181	77.2843	852
-442.339	77.2843	852
-441.531	77.4657	854
-439.17	77.375	853
-436.814	77.2843	852
-431.398	76.6494	845
-428.555	76.4679	843
-426.733	76.4679	843
-426.422	76.7401	846
-423.59	76.5586	844
-419.766	76.1958	840
-419.941	76.5586	844
-415.144	76.0144	838
-415.799	76.4679	843
-413.976	76.4679	843
-408.732	75.833	836
-404.004	75.2887	830
-402.694	75.3794	831
-406.687	76.4679	843
-408.707	77.1936	851
-404.955	76.8308	847
-399.792	76.1958	840
-396.081	75.833	836
-394.274	75.833	836
-390.12	75.3794	831
-389.725	75.6516	834
-390.713	76.1958	840
-389.823	76.3772	842
-387.542	76.2865	841
-385.724	76.2865	841
-382.08	75.9237	837
-377.091	75.2887	830
-375.749	75.3794	831
-373.052	75.198	829
-373.051	75.5608	833
-369.022	75.1073	828
-368.563	75.3794	831
-368.091	75.6516	834
-375.95	77.6472	856
-372.352	77.2843	852
-364.856	76.1051	839
-357.85	75.0166	827
-353.91	74.563	822
-350.419	74.2002	818
-348.225	74.1095	817
-342.642	73.2931	808
-342.583	73.6559	812
-348.803	75.3794	831
-348.677	75.7423	835
-342.717	74.8352	825
-334.735	73.4745	810
-327.229	72.2046	796
-321.419	71.2975	786
-321.754	71.7511	791
-325.304	72.9303	804
-331.212	74.6537	823
-334.637	75.833	836
-336.811	76.7401	846
-331.814	76.0144	838
-324.49	74.7445	824
-317.617	73.5652	811
-315.864	73.5652	811
-312.949	73.2931	808
-309.661	72.9303	804
-307.158	72.7489	802
-305.805	72.8396	803
-304.447	72.9303	804
-298.944	72.0232	794
-296.479	71.8418	792
-294.395	71.7511	791
-295.645	72.4767	799
-300.539	74.1095	817
-302.796	75.1073	828
-300.643	75.0166	827
-295.241	74.1095	817
-289.524	73.1117	806
-285.639	72.5674	800
-280.716	71.7511	791
-278.3	71.5696	789
-276.945	71.6603	790
-275.934	71.8418	792
-273.184	71.5696	789
-271.478	71.5696	789
-269.772	71.5696	789
-271.125	72.386	798
-272.438	73.2024	807
-271.7	73.4745	810
-269.949	73.4745	810
-264.224	72.386	798
-260.855	71.9325	793
-257.506	71.4789	788
-258.075	72.1139	795
-256.679	72.2046	796
-255.279	72.2953	797
-252.283	71.9325	793
-256.889	73.7467	813
-255.131	73.7467	813
-255.555	74.3816	820
-256.259	75.1073	828
