-366.939	67.9144	499
-365.127	67.7783	498
-364.051	67.7783	498
-360.788	67.37	495
-359.718	67.37	495
-360.821	67.7783	498
-362.634	68.3227	502
-362.989	68.5949	504
-356.155	67.5061	496
-349.356	66.4173	488
-348.301	66.4173	488
-345.823	66.1451	486
-346.191	66.4173	488
-347.258	66.8256	491
-350.427	67.6422	497
-350.056	67.7783	498
-348.979	67.7783	498
-346.505	67.5061	496
-342.648	66.9617	492
-338.807	66.4173	488
-339.828	66.8256	491
-340.837	67.2339	494
-339.769	67.2339	494
-338.701	67.2339	494
-336.266	66.9617	492
-337.246	67.37	495
-339.572	68.0505	500
-339.845	68.3227	502
-338.085	68.1866	501
-337.002	68.1866	501
-331.226	67.2339	494
-328.821	66.9617	492
-329.756	67.37	495
-330.678	67.7783	498
-330.925	68.0505	500
-330.504	68.1866	501
-328.106	67.9144	499
-327.027	67.9144	499
-326.602	68.0505	500
-326.823	68.3227	502
-326.387	68.4588	503
-327.24	68.8671	506
-326.146	68.8671	506
-325.052	68.8671	506
-323.318	68.731	505
-319.674	68.1866	501
-318.591	68.1866	501
-317.508	68.1866	501
-317.688	68.4588	503
-320.377	69.2754	509
-319.904	69.4115	510
-317.552	69.1393	508
-313.962	68.5949	504
-312.872	68.5949	504
-313.02	68.8671	506
-313.775	69.2754	509
-313.904	69.5476	511
-312.799	69.5476	511
-311.694	69.5476	511
-309.982	69.4115	510
-304.64	68.4588	503
-296.311	66.8256	491
-295.249	66.8256	491
-295.386	67.0978	493
-296.112	67.5061	496
-296.229	67.7783	498
-295.745	67.9144	499
-294.667	67.9144	499
-293.588	67.9144	499
-290.164	67.37	495
-286.174	66.6895	490
-286.861	67.0978	493
-286.374	67.2339	494
-287.039	67.6422	497
-287.116	67.9144	499
-286.61	68.0505	500
-285.529	68.0505	500
-284.448	68.0505	500
-282.801	67.9144	499
-278.899	67.2339	494
-276.144	66.8256	491
-273.402	66.4173	488
-272.347	66.4173	488
-271.848	66.5534	489
-270.791	66.5534	489
-270.837	66.8256	491
-271.424	67.2339	494
-271.998	67.6422	497
-270.379	67.5061	496
-267.134	66.9617	492
-264.989	66.6895	490
-263.391	66.5534	489
-262.871	66.6895	490
-263.949	67.2339	494
-263.945	67.5061	496
-263.933	67.7783	498
-263.384	67.9144	499
-261.254	67.6422	497
-259.133	67.37	495
-260.67	68.0505	500
-261.665	68.5949	504
-263.161	69.2754	509
-262.061	69.2754	509
-259.422	68.8671	506
-257.818	68.731	505
-256.218	68.5949	504
-256.647	69.0032	507
-254.039	68.5949	504
-252.949	68.5949	504
-248.862	67.7783	498
-245.297	67.0978	493
-242.25	66.5534	489
-239.713	66.1451	486
-239.154	66.2812	487
-238.101	66.2812	487
-240.455	67.2339	494
-241.81	67.9144	499
-243.626	68.731	505
-243.975	69.1393	508
-240.009	68.3227	502
-237.02	67.7783	498
-235.469	67.6422	497
-235.81	68.0505	500
-236.137	68.4588	503
-235.985	68.731	505
-235.823	69.0032	507
-233.801	68.731	505
-230.406	68.0505	500
-226.114	67.0978	493
-220.484	65.7368	483
-216.714	64.9202	477
-216.587	65.1924	479
-220.501	66.6895	490
-222.129	67.5061	496
-220.165	67.2339	494
-217.767	66.8256	491
-216.264	66.6895	490
-216.523	67.0978	493
-216.331	67.37	495
-215.261	67.37	495
-214.624	67.5061	496
-213.982	67.6422	497
-212.479	67.5061	496
-209.702	66.9617	492
-208.638	66.9617	492
-207.997	67.0978	493
-207.351	67.2339	494
-206.701	67.37	495
-203.969	66.8256	491
-202.081	66.5534	489
-202.668	67.0978	493
-204.056	67.9144	499
-203.791	68.1866	501
-203.922	68.5949	504
-201.222	68.0505	500
-196.539	66.8256	491
-194.283	66.4173	488
-192.04	66.009	485
-191.386	66.1451	486
-190.335	66.1451	486
-188.506	65.8729	484
-186.685	65.6007	482
-184.873	65.3285	480
-183.835	65.3285	480
-183.559	65.6007	482
-183.274	65.8729	484
-185.24	66.9617	492
-185.674	67.5061	496
-184.23	67.37	495
-181.309	66.6895	490
-179.882	66.5534	489
-178.459	66.4173	488
-176.678	66.1451	486
-175.627	66.1451	486
-173.499	65.7368	483
-172.812	65.8729	484
-173.54	66.5534	489
-173.541	66.9617	492
-172.828	67.0978	493
-172.111	67.2339	494
-173.12	68.0505	500
-171.351	67.7783	498
-167.539	66.6895	490
-165.461	66.2812	487
-163.058	65.7368	483
-161.678	65.6007	482
-161.303	65.8729	484
-160.919	66.1451	486
-160.855	66.5534	489
-159.471	66.4173	488
-159.39	66.8256	491
-157.039	66.2812	487
-155.666	66.1451	486
-153.979	65.8729	484
-152.932	65.8729	484
-152.2	66.009	485
-151.775	66.2812	487
-153.508	67.5061	496
-154.279	68.3227	502
-152.889	68.1866	501
-149.685	67.2339	494
-146.21	66.1451	486
-144.861	66.009	485
-144.109	66.1451	486
-143.942	66.5534	489
-142.885	66.5534	489
-142.408	66.8256	491
-141.346	66.8256	491
-139.999	66.6895	490
-138.94	66.6895	490
-138.162	66.8256	491
-137.1	66.8256	491
-135.762	66.6895	490
-134.703	66.6895	490
-133.371	66.5534	489
-132.314	66.5534	489
-131.793	66.8256	491
-129.667	66.2812	487
-128.614	66.2812	487
-127.562	66.2812	487
-127.028	66.5534	489
-126.744	66.9617	492
-125.17	66.6895	490
-123.857	66.5534	489
-122.8	66.5534	489
-122.241	66.8256	491
-121.179	66.8256	491
-120.118	66.8256	491
-119.057	66.8256	491
-117.274	66.4173	488
-115.267	65.8729	484
-113.277	65.3285	480
-111.537	64.9202	477
-110.97	65.1924	479
-111.311	66.009	485
-110.717	66.2812	487
-109.89	66.4173	488
-108.389	66.1451	486
-108.443	66.8256	491
-106.506	66.2812	487
-104.154	65.4646	481
-105.258	66.8256	491
-103.136	66.1451	486
-101.035	65.4646	481
-98.9559	64.7841	476
-97.9269	64.7841	476
-97.9158	65.4646	481
-97.4802	65.8729	484
-97.4301	66.5534	489
-96.9643	66.9617	492
-96.0957	67.0978	493
-94.8372	66.9617	492
-93.3924	66.6895	490
-92.1447	66.5534	489
-90.9014	66.4173	488
-89.6624	66.2812	487
-88.0638	65.8729	484
-88.0962	66.6895	490
-87.2146	66.8256	491
-86.1532	66.8256	491
-84.9185	66.6895	490
-83.517	66.4173	488
-81.7861	65.8729	484
-80.5731	65.7368	483
-79.3643	65.6007	482
-78.4848	65.7368	483
-77.6011	65.8729	484
-76.0803	65.4646	481
-75.1965	65.6007	482
-74.0007	65.4646	481
-72.9609	65.4646	481
-72.9678	66.4173	488
-71.7655	66.2812	487
-69.9868	65.6007	482
-69.0879	65.7368	483
-68.4664	66.1451	486
-67.6932	66.4173	488
-66.5017	66.2812	487
-65.5834	66.4173	488
-64.6607	66.5534	489
-62.5631	65.4646	481
-61.3954	65.3285	480
-61.4895	66.5534	489
-59.8145	65.8729	484
-58.6468	65.7368	483
-57.8412	66.009	485
-56.6757	65.8729	484
-55.2846	65.4646	481
-53.9065	65.0563	478
-52.5413	64.648	475
-51.8399	65.0563	478
-51.338	65.7368	483
-50.8145	66.4173	488
-49.9636	66.6895	490
-48.9043	66.6895	490
-47.4545	66.1451	486
-46.3084	66.009	485
-45.26	66.009	485
-44.1204	65.8729	484
-42.8072	65.4646	481
-41.6805	65.3285	480
-40.6429	65.3285	480
-39.6053	65.3285	480
-38.8087	65.7368	483
-37.8428	65.8729	484
-37.0246	66.2812	487
-36.415	67.0978	493
-35.5644	67.5061	496
-34.2836	67.0978	493
-32.5441	65.7368	483
-31.1087	64.9202	477
-30.3297	65.4646	481
-29.7162	66.4173	488
-28.8375	66.8256	491
-27.6629	66.5534	489
-26.4971	66.2812	487
-25.2876	65.8729	484
-24.3415	66.1451	486
-23.4826	66.6895	490
-22.4691	66.8256	491
-21.4077	66.8256	491
-20.1391	66.1451	486
-18.9314	65.6007	482
-17.8894	65.6007	482
-17.197	66.9617	492
-16.2646	67.5061	496
-15.223	67.6422	497
-14.1487	67.6422	497
-13.0217	67.37	495
-11.7826	66.4173	488
-10.6178	65.7368	483
-9.53404	65.4646	481
-8.4766	65.3285	480
-7.45447	65.4646	481
-6.40135	65.3285	480
-5.36373	65.3285	480
-4.34413	65.6007	482
-3.30903	65.7368	483
-2.23679	64.9202	477
-1.19554	64.3758	473
-0.174149	64.7841	476
0.860215	65.1924	479
1.90755	65.6007	482
2.97397	66.1451	486
4.03285	66.2812	487
5.09605	66.4173	488
6.17617	66.6895	490
7.23541	66.6895	490
8.29465	66.6895	490
9.31571	66.4173	488
10.3281	66.1451	486
11.3553	66.009	485
12.4549	66.2812	487
13.5354	66.4173	488
14.5006	66.009	485
15.4849	65.7368	483
16.6659	66.2812	487
17.755	66.4173	488
18.7329	66.1451	486
19.3764	64.7841	476
20.2339	64.2397	472
21.2092	64.1036	471
22.3689	64.5119	474
23.5417	64.9202	477
24.7789	65.4646	481
26.0334	66.009	485
27.361	66.6895	490
28.4202	66.6895	490
29.299	66.2812	487
30.2894	66.1451	486
31.211	65.8729	484
32.5239	66.4173	488
33.4412	66.1451	486
34.6337	66.4173	488
35.7618	66.5534	489
36.6683	66.2812	487
37.6436	66.1451	486
38.6145	66.009	485
39.663	66.009	485
40.8793	66.2812	487
42.4487	67.0978	493
43.8674	67.6422	497
45.0322	67.7783	498
46.0162	67.6422	497
46.8063	67.2339	494
47.7773	67.0978	493
48.843	67.0978	493
49.9087	67.0978	493
50.9745	67.0978	493
52.0402	67.0978	493
52.9982	66.9617	492
54.0617	66.9617	492
54.5651	66.2812	487
55.2752	65.8729	484
56.2051	65.7368	483
57.4863	66.009	485
58.6554	66.1451	486
60.3203	66.8256	491
61.3817	66.8256	491
62.4431	66.8256	491
63.6338	66.9617	492
64.5659	66.8256	491
65.6273	66.8256	491
66.8245	66.9617	492
67.6121	66.6895	490
68.5312	66.5534	489
68.4498	65.4646	481
69.0562	65.0563	478
70.0895	65.0563	478
71.5692	65.4646	481
72.458	65.3285	480
73.1894	65.0563	478
74.378	65.1924	479
76.0432	65.7368	483
77.2469	65.8729	484
78.1314	65.7368	483
78.8477	65.4646	481
80.0535	65.6007	482
81.432	65.8729	484
82.9895	66.2812	487
84.0422	66.2812	487
84.7455	66.009	485
86.1478	66.2812	487
87.9167	66.8256	491
89.703	67.37	495
90.7731	67.37	495
90.9154	66.6895	490
91.0361	66.009	485
91.8947	65.8729	484
92.941	65.8729	484
94.3756	66.1451	486
96.0152	66.5534	489
97.6679	66.9617	492
99.1328	67.2339	494
100.809	67.6422	497
103.114	68.4588	503
104.408	68.5949	504
101.73	66.1451	486
102.146	65.7368	483
103.404	65.8729	484
104.234	65.7368	483
105.278	65.7368	483
106.102	65.6007	482
106.255	65.0563	478
107.064	64.9202	477
108.322	65.0563	478
110.27	65.6007	482
112.467	66.2812	487
114.452	66.8256	491
115.748	66.9617	492
117.287	67.2339	494
119.313	67.7783	498
120.148	67.6422	497
118.783	66.2812	487
119.344	66.009	485
121.137	66.4173	488
121.691	66.1451	486
122.742	66.1451	486
124.047	66.2812	487
126.127	66.8256	491
127.707	67.0978	493
127.728	66.5534	489
126.151	65.1924	479
127.187	65.1924	479
129.025	65.6007	482
130.877	66.009	485
132.469	66.2812	487
135.167	67.0978	493
137.338	67.6422	497
137.298	67.0978	493
137.803	66.8256	491
138.298	66.5534	489
139.925	66.8256	491
140.413	66.5534	489
142.048	66.8256	491
142.818	66.6895	490
143.877	66.6895	490
145.528	66.9617	492
146.89	67.0978	493
147.655	66.9617	492
148.719	66.9617	492
149.174	66.6895	490
149.62	66.4173	488
151.91	66.9617	492
153.284	67.0978	493
156.228	67.9144	499
157.307	67.9144	499
159.973	68.5949	504
161.382	68.731	505
161.508	68.3227	502
160.002	67.2339	494
159.44	66.5534	489
162.466	67.37	495
165.188	68.0505	500
165.271	67.6422	497
166.681	67.7783	498
167.757	67.7783	498
168.156	67.5061	496
168.204	67.0978	493
167.21	66.2812	487
166.19	65.4646	481
167.229	65.4646	481
169.319	65.8729	484
170.717	66.009	485
171.765	66.009	485
174.595	66.6895	490
177.089	67.2339	494
177.435	66.9617	492
175.959	66.009	485
177.372	66.1451	486
178.056	66.009	485
179.104	66.009	485
179.41	65.7368	483
179.333	65.3285	480
178.868	64.7841	476
182.164	65.6007	482
185.107	66.2812	487
189.218	67.37	495
193.363	68.4588	503
196.383	69.1393	508
198.259	69.4115	510
198.97	69.2754	509
195.354	67.6422	497
192.081	66.1451	486
193.131	66.1451	486
194.582	66.2812	487
195.233	66.1451	486
195.879	66.009	485
197.74	66.2812	487
200.834	66.9617	492
203.949	67.6422	497
205.436	67.7783	498
206.927	67.9144	499
210.09	68.5949	504
212.436	69.0032	507
212.69	68.731	505
212.935	68.4588	503
209.342	66.9617	492
209.123	66.5534	489
210.18	66.5534	489
210.373	66.2812	487
214.03	67.0978	493
215.532	67.2339	494
217.477	67.5061	496
218.99	67.6422	497
220.507	67.7783	498
223.364	68.3227	502
225.343	68.5949	504
225.085	68.1866	501
224.362	67.6422	497
224.983	67.5061	496
225.599	67.37	495
228.043	67.7783	498
231.88	68.5949	504
233.432	68.731	505
233.13	68.3227	502
230.949	67.37	495
229.207	66.5534	489
230.264	66.5534	489
232.267	66.8256	491
233.329	66.8256	491
233.913	66.6895	490
236.89	67.2339	494
241.33	68.1866	501
243.381	68.4588	503
244.468	68.4588	503
243.603	67.9144	499
244.191	67.7783	498
243.298	67.2339	494
243.376	66.9617	492
242.452	66.4173	488
242.01	66.009	485
243.56	66.1451	486
247.127	66.8256	491
248.694	66.9617	492
249.757	66.9617	492
254.899	68.0505	500
261.1	69.4115	510
264.773	70.092	515
263.305	69.4115	510
261.815	68.731	505
261.345	68.3227	502
262.953	68.4588	503
264.565	68.5949	504
265.655	68.5949	504
267.803	68.8671	506
265.708	68.0505	500
267.856	68.3227	502
268.941	68.3227	502
272.178	68.8671	506
274.892	69.2754	509
276.535	69.4115	510
278.726	69.6837	512
279.286	69.5476	511
279.842	69.4115	510
280.394	69.2754	509
280.388	69.0032	507
282.039	69.1393	508
285.367	69.6837	512
289.83	70.5003	518
289.827	70.2281	516
286.995	69.2754	509
285.832	68.731	505
286.355	68.5949	504
292.007	69.6837	512
293.114	69.6837	512
293.072	69.4115	510
294.174	69.4115	510
294.698	69.2754	509
297.541	69.6837	512
301.565	70.3642	517
302.682	70.3642	517
302.037	69.9559	514
301.379	69.5476	511
303.075	69.6837	512
306.559	70.2281	516
308.27	70.3642	517
310.585	70.6364	519
310.505	70.3642	517
309.212	69.8198	513
310.926	69.9559	514
311.43	69.8198	513
313.757	70.092	515
314.259	69.9559	514
315.37	69.9559	514
315.25	69.6837	512
316.357	69.6837	512
316.844	69.5476	511
316.704	69.2754	509
315.931	68.8671	506
318.278	69.1393	508
-369.493	69.2695	501
-366.204	68.8547	498
-362.194	68.3017	494
-359.665	68.0251	492
-357.143	67.7486	490
-358.991	68.3017	494
-357.923	68.3017	494
-358.3	68.5782	496
-355.787	68.3017	494
-350.411	67.4721	488
-343.629	66.366	480
-342.591	66.366	480
-342.265	66.5042	481
-341.935	66.6425	482
-343.722	67.1956	486
-347.607	68.1634	493
-344.432	67.7486	490
-343.373	67.7486	490
-338.821	67.0573	485
-335.683	66.6425	482
-334.641	66.6425	482
-334.983	66.919	484
-333.937	66.919	484
-332.891	66.919	484
-333.216	67.1956	486
-334.216	67.6103	489
-335.203	68.0251	492
-335.497	68.3017	494
-331.721	67.7486	490
-327.288	67.0573	485
-326.24	67.0573	485
-322.509	66.5042	481
-323.475	66.919	484
-325.093	67.4721	488
-327.358	68.1634	493
-325.63	68.0251	492
-323.248	67.7486	490
-322.846	67.8869	491
-322.44	68.0251	492
-321.376	68.0251	492
-320.964	68.1634	493
-321.845	68.5782	496
-322.066	68.8547	498
-322.278	69.1312	500
-321.198	69.1312	500
-318.836	68.8547	498
-315.846	68.4399	495
-314.14	68.3017	494
-313.072	68.3017	494
-313.267	68.5782	496
-315.342	69.2695	501
-317.395	69.9608	506
-316.301	69.9608	506
-313.962	69.6843	504
-312.251	69.546	503
-308.69	68.993	499
-306.378	68.7164	497
-305.918	68.8547	498
-304.229	68.7164	497
-300.715	68.1634	493
-292.963	66.6425	482
-293.133	66.919	484
-292.086	66.919	484
-291.641	67.0573	485
-289.994	66.919	484
-286.56	66.366	480
-286.712	66.6425	482
-288.04	67.1956	486
-288.761	67.6103	489
-289.469	68.0251	492
-284.889	67.1956	486
-282.67	66.919	484
-282.787	67.1956	486
-283.476	67.6103	489
-283.574	67.8869	491
-283.663	68.1634	493
-283.171	68.3017	494
-282.103	68.3017	494
-281.035	68.3017	494
-277.7	67.7486	490
-273.818	67.0573	485
-269.958	66.366	480
-267.799	66.0895	478
-265.65	65.8129	476
-266.845	66.366	480
-267.468	66.7808	483
-268.079	67.1956	486
-268.127	67.4721	488
-267.62	67.6103	489
-265.472	67.3338	487
-263.877	67.1956	486
-262.826	67.1956	486
-261.776	67.1956	486
-261.261	67.3338	487
-262.346	67.8869	491
-261.817	68.0251	492
-260.753	68.0251	492
-259.162	67.8869	491
-257.049	67.6103	489
-256.515	67.7486	490
-255.978	67.8869	491
-255.435	68.0251	492
-252.821	67.6103	489
-253.308	68.0251	492
-253.27	68.3017	494
-252.713	68.4399	495
-250.626	68.1634	493
-249.054	68.0251	492
-250.007	68.5782	496
-247.931	68.3017	494
-247.362	68.4399	495
-246.292	68.4399	495
-243.241	67.8869	491
-240.7	67.4721	488
-237.68	66.919	484
-236.634	66.919	484
-237.535	67.4721	488
-238.418	68.0251	492
-237.837	68.1634	493
-235.811	67.8869	491
-232.837	67.3338	487
-230.356	66.919	484
-230.732	67.3338	487
-231.565	67.8869	491
-231.443	68.1634	493
-231.779	68.5782	496
-229.311	68.1634	493
-231.486	69.1312	500
-228.562	68.5782	496
-222.904	67.1956	486
-218.201	66.0895	478
-215.351	65.5364	474
-214.778	65.6747	475
-216.451	66.5042	481
-216.755	66.919	484
-215.709	66.919	484
-214.219	66.7808	483
-213.175	66.7808	483
-213.448	67.1956	486
-212.398	67.1956	486
-211.347	67.1956	486
-210.729	67.3338	487
-210.538	67.6103	489
-209.052	67.4721	488
-207.145	67.1956	486
-204.398	66.6425	482
-204.2	66.919	484
-203.993	67.1956	486
-203.36	67.3338	487
-201.892	67.1956	486
-199.601	66.7808	483
-199.379	67.0573	485
-200.376	67.7486	490
-200.13	68.0251	492
-198.662	67.8869	491
-195.991	67.3338	487
-192.936	66.6425	482
-191.496	66.5042	481
-191.644	66.919	484
-191.386	67.1956	486
-190.335	67.1956	486
-188.506	66.919	484
-186.685	66.6425	482
-185.643	66.6425	482
-184.218	66.5042	481
-183.559	66.6425	482
-183.274	66.919	484
-183.358	67.3338	487
-178.561	65.9512	477
-175.669	65.2599	472
-174.649	65.2599	472
-174.732	65.6747	475
-175.9	66.5042	481
-175.223	66.6425	482
-173.459	66.366	480
-170.984	65.8129	476
-170.669	66.0895	478
-170.701	66.5042	481
-171.072	67.0573	485
-170.725	67.3338	487
-169.323	67.1956	486
-165.849	66.2277	479
-164.47	66.0895	478
-162.41	65.6747	475
-161.723	65.8129	476
-159.344	65.2599	472
-156.982	64.7068	468
-156.637	64.9834	470
-157.276	65.6747	475
-158.223	66.5042	481
-158.491	67.0573	485
-158.416	67.4721	488
-157.361	67.4721	488
-155.025	66.919	484
-153.024	66.5042	481
-151.669	66.366	480
-150.317	66.2277	479
-148.97	66.0895	478
-147.627	65.9512	477
-147.825	66.5042	481
-148.311	67.1956	486
-146.352	66.7808	483
-144.706	66.5042	481
-143.069	66.2277	479
-142.33	66.366	480
-142.175	66.7808	483
-141.131	66.7808	483
-140.087	66.7808	483
-139.619	67.0573	485
-138.285	66.919	484
-136.671	66.6425	482
-134.504	66.0895	478
-133.471	66.0895	478
-131.606	65.6747	475
-131.679	66.2277	479
-130.916	66.366	480
-129.067	65.9512	477
-128.304	66.0895	478
-127.537	66.2277	479
-126.766	66.366	480
-125.728	66.366	480
-125.729	66.919	484
-125.198	67.1956	486
-123.892	67.0573	485
-122.084	66.6425	482
-120.791	66.5042	481
-119.751	66.5042	481
-119.945	67.1956	486
-119.384	67.4721	488
-117.844	67.1956	486
-116.553	67.0573	485
-114.552	66.5042	481
-112.805	66.0895	478
-111.537	65.9512	477
-110.97	66.2277	479
-110.164	66.366	480
-108.217	65.8129	476
-106.287	65.2599	472
-105.936	65.6747	475
-104.688	65.5364	474
-103.445	65.3981	473
-102.206	65.2599	472
-99.6847	64.292	465
-98.4673	64.1538	464
-98.0944	64.5686	467
-97.7085	64.9834	470
-97.9269	65.8129	476
-98.1193	66.6425	482
-97.0774	66.6425	482
-96.6332	67.0573	485
-96.176	67.4721	488
-95.1211	67.4721	488
-94.0661	67.4721	488
-93.0112	67.4721	488
-91.5794	67.1956	486
-90.1563	66.919	484
-88.7418	66.6425	482
-87.154	66.2277	479
-87.3771	67.1956	486
-86.3265	67.1956	486
-84.9249	66.919	484
-83.0122	66.2277	479
-81.2921	65.6747	475
-79.9274	65.3981	473
-78.7381	65.2599	472
-78.047	65.5364	474
-77.3474	65.8129	476
-77.2804	66.6425	482
-76.2384	66.6425	482
-75.1965	66.6425	482
-74.0007	66.5042	481
-72.5059	66.0895	478
-71.7716	66.366	480
-70.5866	66.2277	479
-69.6964	66.366	480
-68.9448	66.6425	482
-67.762	66.5042	481
-66.7222	66.5042	481
-64.9997	65.8129	476
-63.5675	65.3981	473
-61.7516	64.5686	467
-61.2624	65.1216	471
-60.5	65.3981	473
-59.4775	65.3981	473
-58.5786	65.5364	474
-57.7968	65.8129	476
-57.1256	66.2277	479
-56.0902	66.2277	479
-54.7099	65.8129	476
-53.0043	64.9834	470
-51.6564	64.5686	467
-50.6469	64.5686	467
-50.0625	65.1216	471
-49.565	65.8129	476
-49.1478	66.6425	482
-48.0061	66.5042	481
-46.3804	65.6747	475
-45.831	66.366	480
-44.7001	66.2277	479
-43.8469	66.5042	481
-42.9851	66.7808	483
-42.0279	66.919	484
-40.3889	65.9512	477
-39.2752	65.8129	476
-38.407	66.0895	478
-37.3737	66.0895	478
-36.4164	66.2277	479
-35.6764	66.7808	483
-34.704	66.919	484
-33.4491	66.5042	481
-32.005	65.6747	475
-30.8478	65.3981	473
-29.9514	65.6747	475
-29.2291	66.366	480
-28.3089	66.6425	482
-27.267	66.6425	482
-26.0618	66.2277	479
-24.9218	65.9512	477
-23.9408	66.0895	478
-23.2909	67.1956	486
-22.1945	67.0573	485
-20.8845	66.2277	479
-19.6833	65.6747	475
-18.6172	65.5364	474
-17.5554	65.3981	473
-16.8475	66.6425	482
-15.8711	66.919	484
-14.8555	67.0573	485
-13.8355	67.1956	486
-12.7849	67.1956	486
-11.6378	66.6425	482
-10.4639	65.8129	476
-9.37547	65.3981	473
-8.37064	65.5364	474
-7.39248	65.9512	477
-6.38801	66.2277	479
-5.36373	66.366	480
-4.3261	66.366	480
-3.25423	65.6747	475
-2.20397	64.9834	470
-1.18038	64.5686	467
-0.172319	65.1216	471
0.847644	65.2599	472
1.87193	65.3981	473
2.9189	65.9512	477
3.98316	66.5042	481
5.09605	67.4721	488
6.17617	67.7486	490
7.22065	67.6103	489
8.24387	67.3338	487
9.23935	66.919	484
10.1581	66.0895	478
11.1212	65.6747	475
12.1736	65.8129	476
13.258	66.0895	478
14.2913	66.0895	478
15.2605	65.8129	476
16.1184	65.1216	471
17.2457	65.5364	474
18.3474	65.8129	476
19.3357	65.6747	475
20.2339	65.2599	472
21.3893	65.6747	475
22.3218	65.3981	473
23.1962	64.9834	470
24.2122	64.9834	470
25.6576	66.0895	478
26.9143	66.6425	482
27.8402	66.366	480
28.8177	66.2277	479
29.4792	65.3981	473
30.4372	65.2599	472
31.5908	65.5364	474
32.8907	66.0895	478
34.1369	66.5042	481
35.3961	66.919	484
36.2918	66.6425	482
37.4112	66.7808	483
38.5349	66.919	484
39.663	67.0573	485
40.6275	66.919	484
41.932	67.3338	487
43.4261	68.0251	492
44.3088	67.7486	490
45.0903	67.3338	487
46.2378	67.4721	488
47.2927	67.4721	488
48.1495	67.1956	486
49.0989	67.0573	485
49.8371	66.6425	482
51.1957	67.0573	485
52.1364	66.919	484
53.1827	66.919	484
54.0049	66.6425	482
55.2752	66.919	484
56.3215	66.919	484
57.6048	67.1956	486
58.6554	67.1956	486
59.706	67.1956	486
60.7566	67.1956	486
61.68	67.0573	485
62.5991	66.919	484
63.3824	66.6425	482
64.558	66.7808	483
65.1946	66.366	480
66.5082	66.6425	482
66.9896	66.0895	478
67.4537	65.5364	474
67.9005	64.9834	470
68.3299	64.4303	466
69.6349	64.7068	468
71.2504	65.2599	472
72.8832	65.8129	476
73.6016	65.5364	474
74.9411	65.8129	476
75.9701	65.8129	476
76.9991	65.8129	476
77.8641	65.6747	475
78.7249	65.5364	474
79.9178	65.6747	475
81.4558	66.0895	478
83.1794	66.6425	482
84.9203	67.1956	486
85.2633	66.6425	482
86.6633	66.919	484
88.072	67.1956	486
89.4894	67.4721	488
89.9877	67.0573	485
90.8484	66.919	484
91.3251	66.5042	481
92.3649	66.5042	481
93.793	66.7808	483
94.2481	66.366	480
95.6827	66.6425	482
96.9254	66.7808	483
98.578	67.1956	486
97.5786	65.8129	476
98.4004	65.6747	475
99.0086	65.3981	473
100.243	65.5364	474
102.335	66.2277	479
103.803	66.5042	481
104.406	66.2277	479
105.002	65.9512	477
105.144	65.3981	473
105.717	65.1216	471
107.415	65.5364	474
109.584	66.2277	479
111.774	66.919	484
113.519	67.3338	487
114.807	67.4721	488
115.387	67.1956	486
115.959	66.919	484
116.28	66.5042	481
117.076	66.366	480
118.113	66.366	480
119.399	66.5042	481
120.439	66.5042	481
121.731	66.6425	482
122.519	66.5042	481
123.558	66.5042	481
125.116	66.7808	483
126.422	66.919	484
124.571	65.3981	473
124.797	64.9834	470
125.277	64.7068	468
126.019	64.5686	467
127.029	64.5686	467
128.312	64.7068	468
130.706	65.3981	473
133.399	66.2277	479
134.154	66.0895	478
136.036	66.5042	481
137.076	66.5042	481
138.977	66.919	484
140.602	67.1956	486
141.069	66.919	484
142.409	67.0573	485
144.937	67.7486	490
147.486	68.4399	495
147.055	67.7486	490
147.208	67.3338	487
147.347	66.919	484
149.006	67.1956	486
150.675	67.4721	488
152.973	68.0251	492
154.037	68.0251	492
156.677	68.7164	497
158.068	68.8547	498
159.145	68.8547	498
159.9	68.7164	497
157.735	67.3338	487
155.853	66.0895	478
152.948	64.4303	466
155.277	64.9834	470
158.621	65.9512	477
162.329	67.0573	485
164.725	67.6103	489
166.799	68.0251	492
167.522	67.8869	491
168.24	67.7486	490
168.954	67.6103	489
170.011	67.6103	489
170.018	67.1956	486
170.365	66.919	484
170.349	66.5042	481
171.745	66.6425	482
174.221	67.1956	486
174.911	67.0573	485
174.145	66.366	480
175.548	66.5042	481
176.22	66.366	480
177.997	66.6425	482
179.781	66.919	484
180.08	66.6425	482
179.995	66.2277	479
180.653	66.0895	478
180.926	65.8129	476
183.484	66.366	480
186.828	67.1956	486
191.744	68.5782	496
193.594	68.8547	498
189.198	66.919	484
189.458	66.6425	482
189.709	66.366	480
189.952	66.0895	478
190.586	65.9512	477
192.822	66.366	480
193.86	66.366	480
197.334	67.1956	486
200.017	67.7486	490
202.307	68.1634	493
204.198	68.4399	495
206.512	68.8547	498
208.006	68.993	499
208.665	68.8547	498
209.742	68.8547	498
204.045	66.6425	482
205.087	66.6425	482
207.412	67.0573	485
209.32	67.3338	487
210.373	67.3338	487
212.294	67.6103	489
215.096	68.1634	493
217.477	68.5782	496
218.99	68.7164	497
220.064	68.7164	497
221.584	68.8547	498
223.107	68.993	499
223.737	68.8547	498
223.911	68.5782	496
224.983	68.5782	496
226.055	68.5782	496
228.043	68.8547	498
230.5	69.2695	501
232.045	69.4078	502
230.344	68.5782	496
229.083	67.8869	491
228.738	67.4721	488
230.264	67.6103	489
230.848	67.4721	488
230.953	67.1956	486
231.526	67.0573	485
233.533	67.3338	487
237.476	68.1634	493
240.478	68.7164	497
240.58	68.4399	495
241.162	68.3017	494
241.739	68.1634	493
242.805	68.1634	493
239.913	67.0573	485
239.968	66.7808	483
241.511	66.919	484
242.056	66.7808	483
245.617	67.4721	488
246.167	67.3338	487
246.204	67.0573	485
249.801	67.7486	490
254.444	68.7164	497
257.061	69.1312	500
259.691	69.546	503
257.668	68.7164	497
257.18	68.3017	494
258.248	68.3017	494
259.841	68.4399	495
263.019	68.993	499
263.039	68.7164	497
262.52	68.3017	494
262.52	68.0251	492
264.12	68.1634	493
266.799	68.5782	496
268.951	68.8547	498
271.112	69.1312	500
272.738	69.2695	501
273.821	69.2695	501
276.001	69.546	503
278.19	69.8225	505
278.176	69.546	503
279.263	69.546	503
283.137	70.2373	508
286.473	70.7904	512
285.333	70.2373	508
281.921	69.1312	500
281.87	68.8547	498
282.378	68.7164	497
283.452	68.7164	497
286.244	69.1312	500
287.325	69.1312	500
288.406	69.1312	500
291.224	69.546	503
295.798	70.3756	509
298.648	70.7904	512
299.755	70.7904	512
299.686	70.5139	510
297.25	69.6843	504
299.524	69.9608	506
301.212	70.0991	507
299.923	69.546	503
298.616	68.993	499
299.695	68.993	499
300.171	68.8547	498
302.457	69.1312	500
303.538	69.1312	500
307.665	69.8225	505
309.98	70.0991	507
312.303	70.3756	509
312.787	70.2373	508
313.885	70.2373	508
313.123	69.8225	505
312.971	69.546	503
314.058	69.546	503
315.145	69.546	503
-363.593	69.229	493
-362.527	69.229	493
-358.529	68.6673	489
-354.547	68.1056	485
-352.041	67.8248	483
-354.631	68.5269	488
-353.576	68.5269	488
-352.521	68.5269	488
-350.746	68.3865	487
-345.385	67.5439	481
-342.197	67.1227	478
-341.164	67.1227	478
-340.842	67.2631	479
-340.516	67.4035	480
-342.307	67.9652	484
-342.671	68.2461	486
-335.294	66.9822	477
-334.263	66.9822	477
-331.835	66.7014	475
-330.808	66.7014	475
-330.476	66.8418	476
-328.754	66.7014	475
-328.418	66.8418	476
-328.764	67.1227	478
-327.731	67.1227	478
-327.381	67.2631	479
-327.027	67.4035	480
-326.668	67.5439	481
-320.89	66.561	474
-318.515	66.2801	472
-315.477	65.8588	469
-314.463	65.8588	469
-316.791	66.561	474
-319.764	67.4035	480
-321.382	67.9652	484
-317.688	67.4035	480
-316.651	67.4035	480
-315.613	67.4035	480
-317.197	67.9652	484
-316.151	67.9652	484
-315.755	68.1056	485
-316.654	68.5269	488
-316.245	68.6673	489
-315.188	68.6673	489
-316.701	69.229	493
-315.635	69.229	493
-312.655	68.8077	490
-311.596	68.8077	490
-310.537	68.8077	490
-310.109	68.9482	491
-310.936	69.3694	494
-311.123	69.6503	496
-308.8	69.3694	494
-305.863	68.9482	491
-304.181	68.8077	490
-301.885	68.5269	488
-298.98	68.1056	485
-296.703	67.8248	483
-295.047	67.6844	482
-293.395	67.5439	481
-292.356	67.5439	481
-291.316	67.5439	481
-290.276	67.5439	481
-288.635	67.4035	480
-286.399	67.1227	478
-284.769	66.9822	477
-284.332	67.1227	478
-284.484	67.4035	480
-283.447	67.4035	480
-281.232	67.1227	478
-279.613	66.9822	477
-279.166	67.1227	478
-280.46	67.6844	482
-279.998	67.8248	483
-278.954	67.8248	483
-277.91	67.8248	483
-277.439	67.9652	484
-276.392	67.9652	484
-275.346	67.9652	484
-272.033	67.4035	480
-268.172	66.7014	475
-264.896	66.1397	471
-262.757	65.8588	469
-262.86	66.1397	471
-262.953	66.4205	473
-264.146	66.9822	477
-264.77	67.4035	480
-264.281	67.5439	481
-263.789	67.6844	482
-262.202	67.5439	481
-261.162	67.5439	481
-259.581	67.4035	480
-259.082	67.5439	481
-258.043	67.5439	481
-259.14	68.1056	485
-257.56	67.9652	484
-253.863	67.2631	479
-251.244	66.8418	476
-251.792	67.2631	479
-251.804	67.5439	481
-251.807	67.8248	483
-250.244	67.6844	482
-248.685	67.5439	481
-248.674	67.8248	483
-248.656	68.1056	485
-246.586	67.8248	483
-244.525	67.5439	481
-243.486	67.5439	481
-240.934	67.1227	478
-240.402	67.2631	479
-239.367	67.2631	479
-241.317	68.1056	485
-243.241	68.9482	491
-240.7	68.5269	488
-237.189	67.8248	483
-236.145	67.8248	483
-235.101	67.8248	483
-233.088	67.5439	481
-232.048	67.5439	481
-231.969	67.8248	483
-229.968	67.5439	481
-227.977	67.2631	479
-228.363	67.6844	482
-227.792	67.8248	483
-228.157	68.2461	486
-228.508	68.6673	489
-227.451	68.6673	489
-227.32	68.9482	491
-224.415	68.3865	487
-220.152	67.4035	480
-215.919	66.4205	473
-213.533	65.9993	470
-213.422	66.2801	472
-212.851	66.4205	473
-211.829	66.4205	473
-210.806	66.4205	473
-209.784	66.4205	473
-210.085	66.8418	476
-209.935	67.1227	478
-208.901	67.1227	478
-207.868	67.1227	478
-207.268	67.2631	479
-207.524	67.6844	482
-206.482	67.6844	482
-203.309	66.9822	477
-201.429	66.7014	475
-200.825	66.8418	476
-200.635	67.1227	478
-200.019	67.2631	479
-199.399	67.4035	480
-196.709	66.8418	476
-195.269	66.7014	475
-194.651	66.8418	476
-194.842	67.2631	479
-194.211	67.4035	480
-191.564	66.8418	476
-189.334	66.4205	473
-189.904	66.9822	477
-190.457	67.5439	481
-190.598	67.9652	484
-190.727	68.3865	487
-189.285	68.2461	486
-185.91	67.4035	480
-184.102	67.1227	478
-183.835	67.4035	480
-183.559	67.6844	482
-182.138	67.5439	481
-180.722	67.4035	480
-171.449	64.3142	458
-170.459	64.3142	458
-172.059	65.2971	465
-173.629	66.2801	472
-174.803	67.1227	478
-173.769	67.1227	478
-171.29	66.561	474
-168.829	65.9993	470
-168.17	66.1397	471
-168.571	66.7014	475
-169.308	67.4035	480
-167.569	67.1227	478
-162.355	65.4376	466
-159.963	64.8759	462
-158.964	64.8759	462
-157.624	64.7355	461
-155.608	64.3142	458
-153.605	63.8929	455
-152.957	64.0333	456
-152.638	64.3142	458
-152.972	64.8759	462
-154.934	66.1397	471
-156.857	67.4035	480
-157.118	67.9652	484
-156.071	67.9652	484
-153.424	67.2631	479
-151.434	66.8418	476
-149.457	66.4205	473
-148.434	66.4205	473
-146.788	66.1397	471
-145.461	65.9993	470
-144.137	65.8588	469
-145.26	66.8418	476
-143.625	66.561	474
-142.901	66.7014	475
-141.576	66.561	474
-140.254	66.4205	473
-138.349	65.9993	470
-137.917	66.2801	472
-136.897	66.2801	472
-137.028	66.8418	476
-135.142	66.4205	473
-132.702	65.7184	468
-130.283	65.0163	463
-129.282	65.0163	463
-129.39	65.578	467
-128.655	65.7184	468
-128.189	65.9993	470
-127.173	65.9993	470
-125.351	65.578	467
-124.342	65.578	467
-123.861	65.8588	469
-123.371	66.1397	471
-123.392	66.7014	475
-122.107	66.561	474
-120.316	66.1397	471
-118.032	65.4376	466
-117.778	65.8588	469
-118.008	66.561	474
-118.218	67.2631	479
-116.938	67.1227	478
-115.419	66.8418	476
-115.111	67.2631	479
-114.552	67.5439	481
-113.277	67.4035	480
-112.239	67.4035	480
-111.433	67.5439	481
-106.721	65.2971	465
-105.034	64.8759	462
-104.711	65.2971	465
-103.705	65.2971	465
-102.7	65.2971	465
-101.914	65.4376	466
-100.69	65.2971	465
-99.2559	65.0163	463
-97.6184	64.595	460
-96.624	64.595	460
-97.0849	65.578	467
-97.5154	66.561	474
-96.8979	66.8418	476
-96.2718	67.1227	478
-95.6369	67.4035	480
-94.9935	67.6844	482
-93.9515	67.6844	482
-93.1023	67.8248	483
-92.2488	67.9652	484
-91.0141	67.8248	483
-89.4112	67.4035	480
-87.8212	66.9822	477
-86.9721	67.1227	478
-86.1185	67.2631	479
-84.5502	66.8418	476
-81.2402	65.0163	463
-79.1995	64.1738	457
-77.6982	63.7525	454
-77.2237	64.1738	457
-77.2367	65.0163	463
-77.7177	66.2801	472
-77.5099	66.9822	477
-76.1581	66.7014	475
-74.9731	66.561	474
-73.9484	66.561	474
-73.0776	66.7014	475
-71.7474	66.4205	473
-70.8745	66.561	474
-69.8498	66.561	474
-68.68	66.4205	473
-67.2283	65.9993	470
-65.6488	65.4376	466
-64.0866	64.8759	462
-62.6782	64.4546	459
-61.9548	64.7355	461
-61.4872	65.2971	465
-61.0022	65.8588	469
-60.3721	66.2801	472
-59.3518	66.2801	472
-58.3315	66.2801	472
-57.3111	66.2801	472
-56.5293	66.561	474
-55.3876	66.4205	473
-54.1352	66.1397	471
-52.7787	65.7184	468
-51.4352	65.2971	465
-50.2131	65.0163	463
-49.4248	65.2971	465
-48.8361	65.8588	469
-46.8026	64.4546	459
-45.4112	63.8929	455
-44.3299	63.7525	454
-43.9214	64.595	460
-43.3003	65.1567	464
-42.9354	66.1397	471
-42.3622	66.8418	476
-40.9859	66.2801	472
-39.7115	65.8588	469
-38.3676	65.2971	465
-36.8803	64.4546	459
-35.7317	64.1738	457
-35.352	65.2971	465
-34.79	66.1397	471
-34.2021	66.9822	477
-33.3796	67.4035	480
-32.005	66.7014	475
-30.7174	66.1397	471
-29.6361	65.9993	470
-28.7419	66.2801	472
-27.7803	66.4205	473
-26.8144	66.561	474
-25.7353	66.4205	473
-24.6606	66.2801	472
-23.5401	65.9993	470
-22.4762	65.8588	469
-21.3708	65.578	467
-20.3613	65.578	467
-19.3518	65.578	467
-18.4208	65.8588	469
-17.4441	65.9993	470
-16.3581	65.7184	468
-15.3137	65.578	467
-14.3348	65.7184	468
-13.437	66.2801	472
-12.4166	66.2801	472
-11.2273	65.2971	465
-10.376	66.2801	472
-9.37547	66.4205	473
-8.28234	65.8588	469
-7.20651	65.2971	465
-6.24132	65.7184	468
-5.24081	65.8588	469
-4.22696	65.8588	469
-3.19257	65.4376	466
-2.18052	65.2971	465
-1.17785	65.4376	466
-0.171588	65.8588	469
0.845848	66.1397	471
1.84027	65.2971	465
2.82711	64.8759	462
3.85067	65.2971	465
4.91852	66.1397	471
5.9871	66.7014	475
7.01392	66.7014	475
8.00688	66.4205	473
8.99119	66.1397	471
9.92435	65.578	467
10.887	65.2971	465
11.8922	65.2971	465
12.8974	65.2971	465
13.8727	65.1567	464
14.8117	64.8759	462
15.9473	65.4376	466
17.0638	65.8588	469
18.2318	66.4205	473
19.2543	66.4205	473
20.3625	66.7014	475
21.2993	66.4205	473
22.2746	66.2801	472
23.1468	65.8588	469
24.0061	65.4376	466
24.9598	65.2971	465
26.3	66.1397	471
27.3762	66.2801	472
28.2161	65.8588	469
29.2299	65.8588	469
30.2437	65.8588	469
31.2576	65.8588	469
32.3402	65.9993	470
33.5692	66.4205	473
34.8842	66.9822	477
35.9906	67.1227	478
37.0239	67.1227	478
38.1368	67.2631	479
39.1723	67.2631	479
40.2917	67.4035	480
41.1571	67.1227	478
41.8373	66.561	474
42.229	65.578	467
43.5163	65.9993	470
45.7641	67.8248	483
47.002	68.1056	485
47.5551	67.4035	480
48.1877	66.8418	476
49.2167	66.8418	476
50.2457	66.8418	476
51.2747	66.8418	476
52.0839	66.561	474
53.5567	67.1227	478
54.9326	67.5439	481
56.4379	68.1056	485
57.0122	67.5439	481
57.9313	67.4035	480
58.9689	67.4035	480
59.8815	67.2631	479
60.7898	67.1227	478
61.4351	66.7014	475
62.3304	66.561	474
62.9541	66.1397	471
64.1081	66.2801	472
65.6803	66.8418	476
66.7093	66.8418	476
66.8844	65.9993	470
67.1781	65.2971	465
68.1833	65.2971	465
69.3373	65.4376	466
70.6466	65.7184	468
72.4238	66.4205	473
73.7569	66.7014	475
74.7837	66.7014	475
75.3317	66.2801	472
76.1903	66.1397	471
77.0445	65.9993	470
78.0605	65.9993	470
79.413	66.2801	472
81.2854	66.9822	477
83.5245	67.9652	484
84.0466	67.5439	481
84.7326	67.2631	479
85.2309	66.8418	476
86.8035	67.2631	479
87.839	67.2631	479
89.2455	67.5439	481
90.0976	67.4035	480
90.5656	66.9822	477
91.5968	66.9822	477
92.8221	67.1227	478
93.2663	66.7014	475
94.8887	67.1227	478
95.32	66.7014	475
96.3468	66.7014	475
96.9636	66.4205	473
97.5718	66.1397	471
98.7993	66.2801	472
100.031	66.4205	473
101.908	66.9822	477
102.939	66.9822	477
103.752	66.8418	476
103.901	66.2801	472
104.254	65.8588	469
105.268	65.8588	469
106.735	66.1397	471
108.211	66.4205	473
110.388	67.1227	478
111.655	67.2631	479
113.396	67.6844	482
113.963	67.4035	480
114.282	66.9822	477
114.346	66.4205	473
115.125	66.2801	472
116.391	66.4205	473
118.406	66.9822	477
119.688	67.1227	478
120.469	66.9822	477
121.245	66.8418	476
122.017	66.7014	475
123.562	66.9822	477
124.593	66.9822	477
123.781	65.9993	470
123.735	65.4376	466
124.474	65.2971	465
125.21	65.1567	464
125.941	65.0163	463
127.216	65.1567	464
129.048	65.578	467
130.336	65.7184	468
131.909	65.9993	470
133.208	66.1397	471
134.796	66.4205	473
137.254	67.1227	478
139.734	67.8248	483
140.195	67.5439	481
140.648	67.2631	479
141.979	67.4035	480
145.996	68.8077	490
145.555	68.1056	485
145.696	67.6844	482
146.434	67.5439	481
147.473	67.5439	481
148.513	67.5439	481
149.553	67.5439	481
149.967	67.2631	479
151.633	67.5439	481
154.259	68.2461	486
156.269	68.6673	489
153.787	67.1227	478
154.172	66.8418	476
153.897	66.2801	472
152.948	65.4376	466
154.286	65.578	467
156.626	66.1397	471
159.317	66.8418	476
162.03	67.5439	481
164.426	68.1056	485
165.475	68.1056	485
167.21	68.3865	487
168.954	68.6673	489
169.663	68.5269	488
168.969	67.8248	483
167.901	66.9822	477
167.161	66.2801	472
167.469	65.9993	470
168.485	65.9993	470
167.698	65.2971	465
169.791	65.7184	468
172.628	66.4205	473
173.65	66.4205	473
175.412	66.7014	475
177.553	67.1227	478
178.586	67.1227	478
178.492	66.7014	475
178.385	66.2801	472
179.025	66.1397	471
178.897	65.7184	468
179.908	65.7184	468
181.307	65.8588	469
182.709	65.9993	470
184.507	66.2801	472
185.92	66.4205	473
187.733	66.7014	475
188.363	66.561	474
189.387	66.561	474
190.814	66.7014	475
193.456	67.2631	479
196.116	67.8248	483
198.384	68.2461	486
199.435	68.2461	486
200.898	68.3865	487
202.78	68.6673	489
202.17	68.1056	485
202.799	67.9652	484
199.634	66.561	474
199.812	66.2801	472
202.109	66.7014	475
203.563	66.8418	476
205.022	66.9822	477
208.645	67.8248	483
210.991	68.2461	486
212.478	68.3865	487
213.97	68.5269	488
216.787	69.0886	492
218.736	69.3694	494
219.359	69.229	493
221.319	69.5099	495
220.592	68.9482	491
223.008	69.3694	494
225.436	69.7907	497
226.966	69.9311	498
228.043	69.9311	498
227.279	69.3694	494
223.725	67.9652	484
225.7	68.2461	486
228.15	68.6673	489
229.676	68.8077	490
229.793	68.5269	488
228.01	67.6844	482
227.151	67.1227	478
228.184	67.1227	478
230.656	67.5439	481
233.623	68.1056	485
233.704	67.8248	483
235.234	67.9652	484
236.768	68.1056	485
239.288	68.5269	488
239.85	68.3865	487
238.924	67.8248	483
239.471	67.6844	482
241.012	67.8248	483
242.056	67.8248	483
244.61	68.2461	486
245.661	68.2461	486
247.219	68.3865	487
249.292	68.6673	489
250.349	68.6673	489
250.378	68.3865	487
248.333	67.5439	481
248.335	67.2631	479
249.892	67.4035	480
252.497	67.8248	483
256.166	68.5269	488
259.33	69.0886	492
260.922	69.229	493
259.862	68.6673	489
261.453	68.8077	490
263.048	68.9482	491
263.572	68.8077	490
265.171	68.9482	491
266.775	69.0886	492
268.382	69.229	493
271.088	69.6503	496
273.806	70.0716	499
277.088	70.6333	503
278.176	70.6333	503
277.597	70.212	500
279.793	70.4928	502
280.878	70.4928	502
279.717	69.9311	498
277.41	69.0886	492
278.474	69.0886	492
278.401	68.8077	490
278.32	68.5269	488
279.374	68.5269	488
280.429	68.5269	488
284.368	69.229	493
287.75	69.7907	497
290.568	70.212	500
295.148	71.0545	506
296.828	71.195	507
296.748	70.9141	505
294.891	70.212	500
295.38	70.0716	499
297.053	70.212	500
294.556	69.3694	494
293.829	68.9482	491
292.488	68.3865	487
292.938	68.2461	486
295.803	68.6673	489
298.681	69.0886	492
302.182	69.6503	496
305.088	70.0716	499
307.394	70.3524	501
308.477	70.3524	501
310.178	70.4928	502
308.783	69.9311	498
307.371	69.3694	494
309.063	69.5099	495
311.386	69.7907	497
-355.48	68.7262	482
-354.438	68.7262	482
-351.93	68.441	480
-345.775	67.4429	473
-345.481	67.5855	474
-347.364	68.1559	478
-346.33	68.1559	478
-348.186	68.7262	482
-344.984	68.2984	479
-341.794	67.8707	476
-342.913	68.2984	479
-341.878	68.2984	479
-340.842	68.2984	479
-336.26	67.5855	474
-337.357	68.0133	477
-335.62	67.8707	476
-328.968	66.73	468
-327.956	66.73	468
-323.452	66.0171	463
-324.54	66.4448	466
-324.227	66.5874	467
-323.91	66.73	468
-324.968	67.1578	471
-324.637	67.3003	472
-323.617	67.3003	472
-323.28	67.4429	473
-322.939	67.5855	474
-317.84	66.73	468
-313.443	66.0171	463
-312.442	66.0171	463
-312.114	66.1597	464
-311.111	66.1597	464
-312.113	66.5874	467
-314.434	67.3003	472
-314.078	67.4429	473
-311.07	67.0152	470
-311.373	67.3003	472
-311.668	67.5855	474
-310.643	67.5855	474
-309.619	67.5855	474
-311.849	68.2984	479
-311.463	68.441	480
-305.898	67.4429	473
-304.875	67.4429	473
-306.423	68.0133	477
-307.312	68.441	480
-308.827	69.0114	484
-307.78	69.0114	484
-306.734	69.0114	484
-305.056	68.8688	483
-304.012	68.8688	483
-301.714	68.5836	481
-300.674	68.5836	481
-299.011	68.441	480
-297.353	68.2984	479
-295.699	68.1559	478
-294.049	68.0133	477
-292.403	67.8707	476
-291.987	68.0133	477
-291.565	68.1559	478
-290.532	68.1559	478
-288.893	68.0133	477
-287.259	67.8707	476
-285.628	67.7281	475
-286.399	68.1559	478
-285.366	68.1559	478
-284.332	68.1559	478
-283.299	68.1559	478
-281.675	68.0133	477
-279.467	67.7281	475
-277.854	67.5855	474
-276.83	67.5855	474
-276.387	67.7281	475
-273.621	67.3003	472
-270.29	66.73	468
-268.128	66.4448	466
-269.987	67.1578	471
-270.111	67.4429	473
-269.088	67.4429	473
-268.066	67.4429	473
-264.785	66.8726	469
-261.521	66.3022	465
-260.516	66.3022	465
-260.069	66.4448	466
-259.618	66.5874	467
-260.27	67.0152	470
-259.253	67.0152	470
-259.886	67.4429	473
-261.052	68.0133	477
-260.021	68.0133	477
-256.818	67.4429	473
-255.255	67.3003	472
-254.235	67.3003	472
-253.214	67.3003	472
-252.194	67.3003	472
-250.109	67.0152	470
-246.973	66.4448	466
-243.855	65.8745	462
-243.907	66.1597	464
-243.951	66.4448	466
-245.551	67.1578	471
-245.571	67.4429	473
-244.548	67.4429	473
-245.071	67.8707	476
-244.554	68.0133	477
-241.992	67.5855	474
-238.933	67.0152	470
-236.905	66.73	468
-235.893	66.73	468
-234.38	66.5874	467
-234.869	67.0152	470
-234.848	67.3003	472
-238.287	68.5836	481
-239.22	69.154	485
-237.189	68.8688	483
-234.19	68.2984	479
-231.694	67.8707	476
-230.665	67.8707	476
-229.153	67.7281	475
-227.166	67.4429	473
-226.144	67.4429	473
-225.121	67.4429	473
-225.046	67.7281	475
-224.963	68.0133	477
-224.401	68.1559	478
-224.77	68.5836	481
-223.73	68.5836	481
-223.616	68.8688	483
-221.65	68.5836	481
-216.941	67.4429	473
-213.18	66.5874	467
-210.807	66.1597	464
-209.804	66.1597	464
-209.701	66.4448	466
-208.246	66.3022	465
-207.241	66.3022	465
-207.123	66.5874	467
-208.32	67.3003	472
-208.617	67.7281	475
-206.716	67.4429	473
-204.824	67.1578	471
-204.239	67.3003	472
-205.371	68.0133	477
-203.483	67.7281	475
-201.178	67.3003	472
-199.733	67.1578	471
-197.871	66.8726	469
-197.277	67.0152	470
-196.261	67.0152	470
-195.245	67.0152	470
-192.989	66.5874	467
-190.747	66.1597	464
-189.335	66.0171	463
-188.74	66.1597	464
-187.737	66.1597	464
-187.942	66.5874	467
-188.533	67.1578	471
-188.311	67.4429	473
-188.477	67.8707	476
-188.629	68.2984	479
-188.769	68.7262	482
-185	67.7281	475
-181.65	66.8726	469
-177.94	65.8745	462
-178.473	66.4448	466
-178.608	66.8726	469
-178.352	67.1578	471
-175.827	66.5874	467
-169.952	64.7338	454
-169.342	64.8764	455
-169.469	65.3042	458
-171.054	66.3022	465
-170.414	66.4448	466
-169.043	66.3022	465
-168.038	66.3022	465
-166.314	66.0171	463
-166.028	66.3022	465
-166.087	66.73	468
-165.075	66.73	468
-162.662	66.1597	464
-160.265	65.5893	460
-158.232	65.1616	457
-157.588	65.3042	458
-156.94	65.4467	459
-154.589	64.8764	455
-152.93	64.5912	453
-151.615	64.4486	452
-150.305	64.3061	451
-149.661	64.4486	452
-149.013	64.5912	453
-153.916	67.1578	471
-154.845	68.0133	477
-153.814	68.0133	477
-150.861	67.1578	471
-148.252	66.4448	466
-146.929	66.3022	465
-146.551	66.5874	467
-144.919	66.3022	465
-143.604	66.1597	464
-142.294	66.0171	463
-142.818	66.73	468
-142.413	67.0152	470
-141.397	67.0152	470
-140.082	66.8726	469
-138.772	66.73	468
-135.994	65.8745	462
-134.703	65.7319	461
-134.577	66.1597	464
-132.422	65.5893	460
-131.999	65.8745	462
-130.433	65.5893	460
-128.313	65.019	456
-125.094	63.8783	448
-124.956	64.3061	451
-125.081	64.8764	455
-125.189	65.4467	459
-124.737	65.7319	461
-124.009	65.8745	462
-123.011	65.8745	462
-121.22	65.4467	459
-120.751	65.7319	461
-120.015	65.8745	462
-117.985	65.3042	458
-115.973	64.7338	454
-114.992	64.7338	454
-115.266	65.4467	459
-115.021	65.8745	462
-113.529	65.5893	460
-114.002	66.4448	466
-113.722	66.8726	469
-113.67	67.4429	473
-111.933	67.0152	470
-111.389	67.3003	472
-110.602	67.4429	473
-109.58	67.4429	473
-106.492	66.1597	464
-104.352	65.4467	459
-102.909	65.1616	457
-103.036	65.8745	462
-102.038	65.8745	462
-100.602	65.5893	460
-99.6072	65.5893	460
-98.8272	65.7319	461
-97.4062	65.4467	459
-97.2542	66.0171	463
-96.6691	66.3022	465
-93.8123	65.019	456
-93.0301	65.1616	457
-93.8549	66.4448	466
-94.6407	67.7281	475
-94.4022	68.2984	479
-93.5617	68.441	480
-92.3313	68.2984	479
-89.7711	67.1578	471
-88.5645	67.0152	470
-87.3622	66.8726	469
-86.7166	67.1578	471
-85.5165	67.0152	470
-83.9611	66.5874	467
-80.9977	65.019	456
-78.7837	64.0209	449
-77.4665	63.7357	447
-77.0136	64.1635	450
-76.8857	64.8764	455
-77.7371	66.4448	466
-77.7177	67.3003	472
-76.8599	67.4429	473
-74.8754	66.5874	467
-73.7077	66.4448	466
-71.7643	65.5893	460
-69.8468	64.7338	454
-69.4721	65.3042	458
-68.7811	65.5893	460
-68.2288	66.0171	463
-66.3567	65.1616	457
-65.941	65.7319	461
-64.6627	65.4467	459
-63.8092	65.5893	460
-62.9513	65.7319	461
-62.2236	66.0171	463
-61.6194	66.4448	466
-60.7421	66.5874	467
-59.7326	66.5874	467
-58.8488	66.73	468
-58.0843	67.0152	470
-56.9469	66.8726	469
-55.933	66.8726	469
-55.1534	67.1578	471
-54.0203	67.0152	470
-52.7787	66.73	468
-51.6564	66.5874	467
-50.2131	66.0171	463
-48.8933	65.5893	460
-47.3783	64.8764	455
-45.9869	64.3061	451
-44.9121	64.1635	450
-43.9394	64.1635	450
-43.5395	65.019	456
-43.0203	65.7319	461
-42.2061	66.0171	463
-41.4722	66.4448	466
-40.5517	66.5874	467
-39.5422	66.5874	467
-38.0376	65.7319	461
-36.7196	65.1616	457
-35.7317	65.1616	457
-35.0479	65.7319	461
-34.5684	66.73	468
-33.9153	67.4429	473
-32.8232	67.3003	472
-31.5334	66.73	468
-30.5217	66.73	468
-29.5731	66.8726	469
-28.4374	66.5874	467
-27.3105	66.3022	465
-26.3053	66.3022	465
-25.4089	66.5874	467
-24.3994	66.5874	467
-23.3898	66.5874	467
-22.1407	65.8745	462
-21.0962	65.7319	461
-20.1433	65.8745	462
-19.1446	65.8745	462
-18.1851	66.0171	463
-17.2585	66.3022	465
-16.1484	65.8745	462
-15.0185	65.3042	458
-13.9366	64.8764	455
-12.8961	64.5912	453
-11.8116	64.0209	449
-10.9376	64.5912	453
-9.93632	64.4486	452
-8.95922	64.4486	452
-8.03511	64.8764	455
-7.09802	65.3042	458
-6.06795	64.8764	455
-5.09554	65.019	456
-4.12783	65.3042	458
-3.15146	65.5893	460
-2.16645	65.8745	462
-1.17785	66.4448	466
-0.171588	66.8726	469
0.842257	66.8726	469
1.83631	66.1597	464
2.79651	65.1616	457
3.80926	65.5893	460
4.85586	66.3022	465
5.87366	66.4448	466
6.88102	66.4448	466
7.85453	66.1597	464
8.91483	66.5874	467
9.96686	66.8726	469
10.9573	66.73	468
11.9178	66.4448	466
12.731	65.4467	459
13.5738	64.7338	454
14.5872	64.8764	455
15.7077	65.4467	459
16.9546	66.4448	466
18.1162	67.0152	470
19.01	66.5874	467
19.9767	66.4448	466
21.1191	66.8726	469
22.0858	66.73	468
22.9001	66.1597	464
23.8001	65.8745	462
24.7451	65.7319	461
25.7417	65.7319	461
26.6222	65.4467	459
27.7949	65.8745	462
28.9183	66.1597	464
30.0503	66.4448	466
30.991	66.3022	465
31.8586	66.0171	463
33.0014	66.3022	465
34.3722	67.0152	470
35.313	66.8726	469
36.4043	67.0152	470
37.6591	67.4429	473
38.7634	67.5855	474
39.788	67.5855	474
40.0378	66.3022	465
40.7782	65.8745	462
41.4152	65.3042	458
42.4978	65.4467	459
43.7743	65.8745	462
44.773	65.8745	462
45.0782	64.8764	455
46.0618	64.8764	455
47.459	65.4467	459
48.6623	65.7319	461
49.8743	66.0171	463
51.3147	66.5874	467
52.5483	66.8726	469
54.019	67.4429	473
55.0415	67.4429	473
56.064	67.4429	473
57.2071	67.5855	474
58.1089	67.4429	473
59.3815	67.7281	475
59.0093	66.1597	464
60.1417	66.3022	465
61.2784	66.4448	466
62.6868	66.8726	469
63.9722	67.1578	471
64.3005	66.4448	466
65.448	66.5874	467
66.0306	66.1597	464
66.7447	65.8745	462
68.0367	66.1597	464
69.1885	66.3022	465
70.3447	66.4448	466
71.6582	66.73	468
72.8252	66.8726	469
73.5242	66.5874	467
74.5337	66.5874	467
75.3814	66.4448	466
76.061	66.1597	464
77.2301	66.3022	465
79.0765	67.0152	470
80.9446	67.7281	475
82.6617	68.2984	479
82.6487	67.4429	473
83.6712	67.4429	473
84.5147	67.3003	472
85.7162	67.4429	473
87.1055	67.7281	475
87.7612	67.4429	473
88.2206	67.0152	470
88.667	66.5874	467
89.6765	66.5874	467
91.0744	66.8726	469
91.1065	66.1597	464
92.1095	66.1597	464
93.5139	66.4448	466
94.7241	66.5874	467
95.9386	66.73	468
96.536	66.4448	466
97.7527	66.5874	467
98.7622	66.5874	467
100.84	67.3003	472
102.076	67.4429	473
103.099	67.4429	473
104.121	67.4429	473
104.254	66.8726	469
105.044	66.73	468
105.829	66.5874	467
107.296	66.8726	469
108.079	66.73	468
109.557	67.0152	470
110.573	67.0152	470
110.639	66.4448	466
111.167	66.1597	464
111.203	65.5893	460
111.954	65.4467	459
114.176	66.1597	464
116.917	67.1578	471
118.686	67.5855	474
119.458	67.4429	473
119.717	67.0152	470
119.962	66.5874	467
120.454	66.3022	465
