-140.142	44.3204	456
-139.767	44.5148	458
-139.08	44.612	459
-137.787	44.5148	458
-140.082	45.5839	469
-139.068	45.5839	469
-138.349	45.6811	470
-137.917	45.8755	472
-138.057	46.2643	476
-137.892	46.5558	479
-136.856	46.5558	479
-134.97	46.2643	476
-130.283	45.0007	463
-128.444	44.7092	460
-127.45	44.7092	460
-127.28	45.0007	463
-125.734	44.8064	461
-123.926	44.5148	458
-123.741	44.8064	461
-123.809	45.1951	465
-123.861	45.5839	469
-123.371	45.7783	471
-120.534	45.0979	464
-119.273	45.0007	463
-118.528	45.0979	464
-118.791	45.5839	469
-118.531	45.8755	472
-116.266	45.3895	467
-115.009	45.2923	466
-113.513	45.0979	464
-112.51	45.0979	464
-112.228	45.3895	467
-111.933	45.6811	470
-111.625	45.9727	473
-110.836	46.0699	474
-109.58	45.9727	473
-108.787	46.0699	474
-108.671	46.4586	478
-107.638	46.4586	478
-106.382	46.3615	477
-106.676	46.9446	483
-106.288	47.2362	486
-104.371	46.8474	482
-101.185	45.8755	472
-99.7405	45.6811	470
-99.3547	45.9727	473
-98.5401	46.0699	474
-98.5441	46.5558	479
-97.9158	46.7502	481
-96.4732	46.5558	479
-95.0392	46.3615	477
-93.811	46.2643	476
-91.8074	45.7783	471
-90.4037	45.5839	469
-89.0087	45.3895	467
-87.8107	45.2923	466
-86.8034	45.2923	466
-85.796	45.2923	466
-85.8804	45.8755	472
-85.3994	46.1671	475
-84.7278	46.3615	477
-84.0476	46.5558	479
-83.0122	46.5558	479
-81.9767	46.5558	479
-81.2792	46.7502	481
-79.9058	46.5558	479
-78.541	46.3615	477
-77.1849	46.1671	475
-77.2804	46.8474	482
-77.0293	47.3334	487
-75.8205	47.2362	486
-74.3084	46.9446	483
-72.8092	46.653	480
-71.6221	46.5558	479
-71.0287	46.8474	482
-70.2772	47.0418	484
-69.517	47.2362	486
-68.6073	47.3334	487
-67.2771	47.139	485
-66.3652	47.2362	486
-65.449	47.3334	487
-64.6607	47.5278	489
-63.6036	47.5278	489
-63.1861	48.0137	494
-61.8667	47.8194	492
-60.3088	47.4306	488
-58.6468	46.9446	483
-58.7953	47.9166	493
-58.1979	48.3053	497
-56.8937	48.1109	495
-55.5981	47.9166	493
-54.4218	47.8194	492
-53.3582	47.8194	492
-52.2946	47.8194	492
-50.9187	47.5278	489
-49.9636	47.625	490
-49.3035	48.0137	494
-48.4309	48.2081	496
-47.5497	48.4025	498
-46.2865	48.2081	496
-45.032	48.0137	494
-44.0531	48.1109	495
-43.5041	48.6941	501
-42.5904	48.8885	503
-41.7506	49.1801	506
-40.7371	49.2773	507
-39.5629	49.1801	506
-38.165	48.7913	502
-37.0059	48.6941	501
-35.9946	48.7913	502
-34.979	48.8885	503
-33.7569	48.6941	501
-32.6739	48.6941	501
-31.717	48.8885	503
-30.6296	48.8885	503
-29.4835	48.7913	502
-28.2852	48.5969	500
-27.0955	48.4025	498
-26.1235	48.5969	500
-25.1428	48.7913	502
-24.0576	48.7913	502
-22.8352	48.4997	499
-21.6693	48.3053	497
-20.5535	48.2081	496
-19.5205	48.3053	497
-18.6689	48.8885	503
-17.6514	49.0829	505
-16.5925	49.1801	506
-15.4681	49.0829	505
-14.3479	48.9857	504
-13.2321	48.8885	503
-12.1207	48.7913	502
-11.1014	49.0829	505
-10.0296	49.1801	506
-8.97107	49.3745	508
-7.91941	49.666	511
-6.84144	49.8604	513
-5.72131	49.7632	512
-4.61451	49.7632	512
-3.51456	49.8604	513
-2.41498	50.0548	515
-1.30423	50.152	516
-0.187686	49.8604	513
0.917683	49.666	511
2.03023	49.8604	513
3.13919	49.8604	513
4.20675	49.3745	508
5.26313	48.9857	504
6.32742	48.7913	502
7.4569	49.0829	505
8.63321	49.5688	510
9.77386	49.7632	512
10.9019	49.8604	513
12.0577	50.0548	515
13.1454	49.9576	514
14.2011	49.7632	512
15.278	49.666	511
16.3505	49.5688	510
17.4872	49.666	511
18.5555	49.5688	510
19.735	49.7632	512
20.8011	49.666	511
21.8629	49.5688	510
23.0104	49.666	511
24.2094	49.8604	513
25.5158	50.2492	517
25.9637	48.9857	504
27.0532	48.9857	504
28.4778	49.5688	510
30.2182	50.638	521
31.7656	51.3183	528
33.094	51.6099	531
33.9839	51.2211	527
34.7232	50.638	521
36.0559	50.9296	524
37.1177	50.8324	523
38.102	50.638	521
38.8518	50.152	516
40.1221	50.3464	518
42.4362	51.8043	533
43.343	51.5127	530
44.069	51.0268	525
44.7734	50.5408	520
45.4562	50.0548	515
46.3886	49.8604	513
48.0531	50.4436	519
49.7435	51.0268	525
51.2661	51.4155	529
52.5087	51.5127	530
53.8569	51.7071	532
55.1103	51.8043	533
56.6847	52.1931	537
57.9533	52.2903	538
58.3471	51.6099	531
59.0468	51.2211	527
61.2139	52.0959	536
61.6744	51.5127	530
62.4645	51.2211	527
62.6382	50.4436	519
63.6373	50.3464	518
65.8822	51.2211	527
67.5301	51.6099	531
68.9366	51.8043	533
69.9573	51.7071	532
70.9737	51.6099	531
71.9858	51.5127	530
73.5454	51.8043	533
74.8378	51.9015	534
76.5613	52.2903	538
78.0133	52.4847	540
78.8873	52.2903	538
79.7528	52.0959	536
80.1567	51.6099	531
81.4577	51.7071	532
82.9182	51.9015	534
84.0726	51.9015	534
85.227	51.9015	534
86.3813	51.9015	534
87.3717	51.8043	533
87.6935	51.3183	528
89.8444	51.9015	534
92.1916	52.5819	541
94.0514	52.9706	545
94.5306	52.5819	541
95.1694	52.2903	538
96.1533	52.1931	537
97.4954	52.2903	538
99.0252	52.4847	540
100.564	52.6791	542
103.612	53.651	552
105.375	53.9426	555
104.847	53.0678	546
104.279	52.1931	537
104.262	51.6099	531
104.616	51.2211	527
107.36	51.9987	535
110.951	53.165	547
111.928	53.0678	546
113.109	53.0678	546
113.661	52.7762	543
113.777	52.2903	538
113.872	51.8043	533
114.809	51.7071	532
117.048	52.1931	537
119.31	52.6791	542
121.148	52.9706	545
121.653	52.6791	542
123.278	52.8734	544
123.539	52.4847	540
124.244	52.2903	538
125.641	52.3875	539
125.394	51.8043	533
125.597	51.4155	529
129.376	52.4847	540
131.268	52.7762	543
132.198	52.6791	542
133.124	52.5819	541
134.541	52.6791	542
136.464	52.9706	545
136.885	52.6791	542
137.802	52.5819	541
139.228	52.6791	542
141.695	53.165	547
144.706	53.8454	554
145.64	53.7482	553
145.773	53.3594	549
147.228	53.4566	550
149.766	53.9426	555
151.238	54.0398	556
148.601	52.6791	542
150.602	52.9706	545
152.615	53.2622	548
154.923	53.651	552
157.813	54.2341	558
158.449	54.0398	556
158.79	53.7482	553
158.828	53.3594	549
160.015	53.3594	549
162.082	53.651	552
163.276	53.651	552
165.065	53.8454	554
165.662	53.651	552
165.042	53.0678	546
165.309	52.7762	543
167.402	53.0678	546
169.818	53.4566	550
171.939	53.7482	553
172.509	53.5538	551
173.7	53.5538	551
174.256	53.3594	549
174.804	53.165	547
175.664	53.0678	546
178.788	53.651	552
180.307	53.7482	553
181.503	53.7482	553
181.377	53.3594	549
180.901	52.8734	544
181.742	52.7762	543
183.253	52.8734	544
187.48	53.7482	553
188.675	53.7482	553
188.497	53.3594	549
188.648	53.0678	546
187.394	52.3875	539
190.309	52.8734	544
193.949	53.5538	551
197.619	54.2341	558
199.894	54.5257	561
201.824	54.7201	563
204.483	55.1089	567
205.346	55.0117	566
204.38	54.4285	560
204.122	54.0398	556
202.369	53.2622	548
203.554	53.2622	548
206.607	53.7482	553
208.93	54.0398	556
210.887	54.2341	558
213.994	54.7201	563
217.887	55.4005	570
221.426	55.9836	576
222.284	55.8864	575
221.972	55.4977	571
221.643	55.1089	567
224.048	55.4005	570
228.837	56.2752	579
230.883	56.4696	581
230.142	55.9836	576
225.361	54.5257	561
226.574	54.5257	561
229.817	55.0117	566
234.306	55.7892	574
238.009	56.3724	580
240.913	56.7612	584
242.59	56.8584	585
242.604	56.5668	582
242.605	56.2752	579
241.751	55.7892	574
243.415	55.8864	575
244.658	55.8864	575
247.184	56.178	578
251.012	56.7612	584
253.571	57.0528	587
253.971	56.8584	585
250.873	55.8864	575
249.047	55.2061	568
249.834	55.1089	567
252.831	55.4977	571
256.29	55.9836	576
258.876	56.2752	579
260.577	56.3724	580
257.768	55.4977	571
258.095	55.3033	569
259.781	55.4005	570
261.929	55.5949	572
263.165	55.5949	572
264.864	55.6921	573
264.71	55.4005	570
266.408	55.4977	571
268.58	55.6921	573
270.29	55.7892	574
270.584	55.5949	572
272.771	55.7892	574
276.399	56.2752	579
280.528	56.8584	585
282.756	57.0528	587
280.154	56.2752	579
280.92	56.178	578
283.145	56.3724	580
285.87	56.664	583
288.608	56.9556	586
290.864	57.15	588
292.632	57.2472	589
293.406	57.15	588
289.666	56.178	578
288.902	55.7892	574
291.659	56.0808	577
293.414	56.178	578
296.703	56.5668	582
303.081	57.5387	592
306.417	57.9275	596
308.738	58.1219	598
305.883	57.3444	590
308.72	57.6359	593
308.434	57.3444	590
308.659	57.15	588
308.876	56.9556	586
309.614	56.8584	585
310.878	56.8584	585
314.811	57.3444	590
317.693	57.6359	593
323.279	58.4135	601
327.278	58.8995	606
329.673	59.0938	608
330.987	59.0938	608
332.301	59.0938	608
333.067	58.9966	607
333.828	58.8995	606
336.244	59.0938	608
337.003	58.9966	607
338.873	59.0938	608
338.509	58.8023	605
337.57	58.4135	601
338.869	58.4135	601
339.602	58.3163	600
340.899	58.3163	600
342.766	58.4135	601
342.348	58.1219	598
342.492	57.9275	596
343.78	57.9275	596
342.173	57.4415	591
341.708	57.15	588
344.729	57.4415	591
352.446	58.5107	602
353.748	58.5107	602
360.947	59.4826	612
364.046	59.7742	615
365.969	59.8714	616
367.301	59.8714	616
366.837	59.5798	613
365.76	59.191	609
364.665	58.8023	605
365.973	58.8023	605
369.102	59.0938	608
372.244	59.3854	611
376.011	59.7742	615
377.954	59.8714	616
376.207	59.3854	611
373.202	58.7051	604
370.168	58.0247	597
372.703	58.2191	599
373.997	58.2191	599
377.798	58.6079	603
-309.017	41.6299	419
-308.111	41.6299	419
-307.205	41.6299	419
-306.3	41.6299	419
-303.207	41.3318	416
-300.855	41.1331	414
-297.062	40.7357	410
-295.453	40.6363	409
-292.408	40.3383	406
-291.53	40.3383	406
-292.8	40.6363	409
-293.344	40.835	411
-293.167	40.9344	412
-292.276	40.9344	412
-291.386	40.9344	412
-292.61	41.2325	415
-295.228	41.7292	420
-295.721	41.9279	422
-295.508	42.0273	423
-295.29	42.1267	424
-292.985	41.9279	422
-292.072	41.9279	422
-284.951	41.0337	413
-285.433	41.2325	415
-287.279	41.6299	419
-289.79	42.1267	424
-289.555	42.226	425
-288.636	42.226	425
-287.718	42.226	425
-287.474	42.3254	426
-285.88	42.226	425
-286.302	42.4247	427
-285.379	42.4247	427
-286.455	42.7228	430
-286.853	42.9215	432
-287.243	43.1202	434
-286.305	43.1202	434
-287.339	43.4183	437
-287.05	43.5176	438
-286.756	43.617	439
-279.948	42.7228	430
-274.476	42.0273	423
-274.209	42.1267	424
-274.581	42.3254	426
-274.303	42.4247	427
-273.38	42.4247	427
-269.904	42.0273	423
-268.99	42.0273	423
-269.343	42.226	425
-270.319	42.5241	428
-270.023	42.6234	429
-269.096	42.6234	429
-268.169	42.6234	429
-262.881	41.9279	422
-265.693	42.5241	428
-266.005	42.7228	430
-265.075	42.7228	430
-265.989	43.0209	433
-266.277	43.2196	435
-265.337	43.2196	435
-261.965	42.8221	431
-260.428	42.7228	430
-258.291	42.5241	428
-256.765	42.4247	427
-257.639	42.7228	430
-257.904	42.9215	432
-257.565	43.0209	433
-256.036	42.9215	432
-255.102	42.9215	432
-253.58	42.8221	431
-253.234	42.9215	432
-251.716	42.8221	431
-252.53	43.1202	434
-251.592	43.1202	434
-250.654	43.1202	434
-248.565	42.9215	432
-247.058	42.8221	431
-245.555	42.7228	430
-243.488	42.5241	428
-243.696	42.7228	430
-242.767	42.7228	430
-242.962	42.9215	432
-243.149	43.1202	434
-244.443	43.5176	438
-244.052	43.617	439
-243.657	43.7163	440
-243.257	43.8157	441
-241.205	43.617	439
-238.614	43.3189	436
-237.671	43.3189	436
-236.729	43.3189	436
-236.327	43.4183	437
-235.383	43.4183	437
-234.974	43.5176	438
-236.699	44.0144	443
-238.402	44.5112	448
-237.434	44.5112	448
-234.882	44.2131	445
-232.343	43.9151	442
-228.77	43.4183	437
-226.783	43.2196	435
-226.881	43.4183	437
-226.453	43.5176	438
-226.536	43.7163	440
-225.585	43.7163	440
-226.165	44.0144	443
-227.241	44.4118	447
-225.768	44.3125	446
-222.788	43.9151	442
-221.833	43.9151	442
-220.377	43.8157	441
-217.931	43.5176	438
-216.489	43.4183	437
-215.545	43.4183	437
-215.091	43.5176	438
-213.655	43.4183	437
-211.737	43.2196	435
-209.343	42.9215	432
-209.374	43.1202	434
-210.837	43.617	439
-213.713	44.4118	447
-216.554	45.2067	455
-216.044	45.306	456
-212.229	44.7099	450
-210.317	44.5112	448
-209.349	44.5112	448
-207.915	44.4118	447
-207.412	44.5112	448
-208.747	45.008	453
-208.227	45.1073	454
-206.789	45.008	453
-206.264	45.1073	454
-199.857	43.9151	442
-198.901	43.9151	442
-197.05	43.7163	440
-195.207	43.5176	438
-195.148	43.7163	440
-197.727	44.5112	448
-195.881	44.3125	446
-194.042	44.1138	444
-190.908	43.617	439
-190.392	43.7163	440
-191.593	44.2131	445
-194.059	45.008	453
-195.637	45.6041	459
-195.069	45.7034	460
-193.652	45.6041	459
-191.401	45.306	456
-189.58	45.1073	454
-188.598	45.1073	454
-187.617	45.1073	454
-187.047	45.2067	455
-186.063	45.2067	455
-185.08	45.2067	455
-180.859	44.4118	447
-177.478	43.8157	441
-175.724	43.617	439
-175.173	43.7163	440
-176.994	44.4118	447
-178.784	45.1073	454
-179.761	45.6041	459
-178.379	45.5047	458
-176.615	45.306	456
-173.703	44.8092	451
-170.047	44.1138	444
-167.945	43.8157	441
-166.234	43.617	439
-165.662	43.7163	440
-166.208	44.1138	444
-165.62	44.2131	445
-163.918	44.0144	443
-163.697	44.2131	445
-164.197	44.6105	449
-163.227	44.6105	449
-162.256	44.6105	449
-162.004	44.8092	451
-160.672	44.7099	450
-160.409	44.9086	452
-159.079	44.8092	451
-158.455	44.9086	452
-157.129	44.8092	451
-155.808	44.7099	450
-154.835	44.7099	450
-154.546	44.9086	452
-154.249	45.1073	454
-153.605	45.2067	455
-152.621	45.2067	455
-150.638	44.9086	452
-149.33	44.8092	451
-148.355	44.8092	451
-148.36	45.1073	454
-147.054	45.008	453
-145.43	44.8092	451
-144.455	44.8092	451
-144.435	45.1073	454
-143.137	45.008	453
-142.472	45.1073	454
-141.802	45.2067	455
-141.128	45.306	456
-139.528	45.1073	454
-137.936	44.9086	452
-136.959	44.9086	452
-136.583	45.1073	454
-136.797	45.5047	458
-137.289	46.0015	463
-137.171	46.2996	466
-136.748	46.4983	468
-136.027	46.5976	469
-135.876	46.8957	472
-135.713	47.1938	475
-133.269	46.697	470
-128.595	45.4054	457
-127.048	45.2067	455
-126.619	45.4054	457
-126.456	45.7034	460
-124.916	45.5047	458
-123.385	45.306	456
-122.399	45.306	456
-122.212	45.6041	459
-122.012	45.9022	462
-119.704	45.4054	457
-118.196	45.2067	455
-117.47	45.306	456
-117.506	45.7034	460
-117.778	46.2002	465
-117.275	46.3989	467
-115.27	46.0015	463
-115.009	46.2996	466
-113.268	46.0015	463
-112.025	45.9022	462
-111.266	46.0015	463
-110.266	46.0015	463
-110.209	46.3989	467
-109.199	46.3989	467
-107.958	46.2996	466
-107.41	46.4983	468
-106.853	46.697	470
-105.386	46.4983	468
-102.367	45.6041	459
-102.259	46.0015	463
-102.57	46.5976	469
-102.206	46.8957	472
-101.614	47.0944	474
-99.9528	46.7964	471
-99.1446	46.8957	472
-99.1638	47.3925	477
-98.5441	47.5912	479
-96.8979	47.2931	476
-94.6605	46.697	470
-93.246	46.4983	468
-92.0373	46.3989	467
-90.8328	46.2996	466
-90.0182	46.3989	467
-89.0087	46.3989	467
-87.9992	46.3989	467
-86.6171	46.2002	465
-85.4278	46.1009	464
-84.2428	46.0015	463
-83.2419	46.0015	463
-81.7082	45.7034	460
-80.7138	45.7034	460
-79.8927	45.8028	461
-78.8962	45.8028	461
-78.2376	46.0015	463
-77.0699	45.9022	462
-76.2358	46.0015	463
-76.0474	46.4983	468
-75.9977	47.0944	474
-75.6058	47.4918	478
-75.1965	47.8893	482
-73.693	47.5912	479
-72.2025	47.2931	476
-70.8745	47.0944	474
-70.1445	47.2931	476
-69.5512	47.5912	479
-68.5157	47.5912	479
-67.6211	47.6906	480
-66.7222	47.7899	481
-65.9555	47.9886	483
-65.3146	48.2867	486
-64.5285	48.4854	488
-63.3435	48.386	487
-62.0349	48.1873	485
-60.232	47.5912	479
-59.5673	47.8893	482
-58.4039	47.7899	481
-57.6027	47.9886	483
-57.6124	48.8828	492
-56.2041	48.5848	489
-54.8087	48.2867	486
-53.5368	48.088	484
-52.599	48.1873	485
-51.6569	48.2867	486
-50.7104	48.386	487
-49.9636	48.6841	490
-49.1039	48.8828	492
-47.9427	48.7835	491
-46.5949	48.4854	488
-45.54	48.4854	488
-44.485	48.4854	488
-43.7861	48.8828	492
-43.1567	49.3796	497
-42.2517	49.5783	499
-41.2555	49.6777	500
-40.1747	49.6777	500
-39.0938	49.6777	500
-37.7088	49.2802	496
-36.6366	49.2802	496
-35.4927	49.1809	495
-34.5617	49.3796	497
-33.42	49.2802	496
-32.3478	49.2802	496
-31.4017	49.479	498
-30.386	49.5783	499
-29.3073	49.5783	499
-28.0024	49.1809	495
-26.8779	49.0815	494
-25.81	49.0815	494
-24.7922	49.1809	495
-23.7222	49.1809	495
-22.6979	49.2802	496
-21.4949	48.9822	493
-20.4706	49.0815	494
-19.3634	48.9822	493
-18.2606	48.8828	492
-17.1621	48.7835	491
-16.0679	48.6841	490
-14.9474	48.4854	488
-13.864	48.386	487
-12.9954	49.0815	494
-11.9758	49.2802	496
-10.9475	49.479	498
-9.871	49.479	498
-8.77681	49.3796	497
-7.76443	49.777	501
-6.72142	50.0751	504
-5.63191	50.0751	504
-4.5334	49.9757	503
-3.44605	49.9757	503
-2.35402	49.8764	502
-1.24862	49.0815	494
-0.180002	48.8828	492
0.883561	48.8828	492
1.96296	49.2802	496
3.05964	49.6777	500
4.11566	49.3796	497
5.17959	49.2802	496
6.27701	49.479	498
7.44214	50.0751	504
8.58243	50.3731	507
9.73568	50.6712	510
10.8382	50.6712	510
11.964	50.7706	511
13.0687	50.7706	511
14.0901	50.4725	508
15.0687	50.0751	504
16.062	49.777	501
17.145	49.777	501
18.3736	50.1744	505
19.5423	50.3731	507
20.5569	50.1744	505
21.5628	49.9757	503
22.6502	49.9757	503
23.5959	49.6777	500
24.5287	49.3796	497
25.6031	49.3796	497
26.6775	49.3796	497
28.031	49.8764	502
29.4642	50.4725	508
31.3445	51.7641	521
32.5331	51.8635	522
33.4035	51.4661	518
34.39	51.2673	516
35.3678	51.0686	514
36.5499	51.168	515
37.6632	51.168	515
38.6259	50.9693	513
39.5025	50.6712	510
40.5254	50.5719	509
41.871	50.8699	512
42.8939	50.7706	511
43.7402	50.4725	508
44.6618	50.2738	506
45.8461	50.3731	507
47.405	50.8699	512
48.9855	51.3667	517
50.2001	51.4661	518
51.1217	51.2673	516
52.1359	51.168	515
54.5933	52.4596	528
56.1569	52.857	532
56.7684	52.3603	527
57.2483	51.7641	521
58.3746	51.7641	521
60.4145	52.559	529
60.8598	51.9628	523
60.8051	50.9693	513
61.552	50.6712	510
62.6545	50.6712	510
64.007	50.8699	512
65.7496	51.3667	517
67.6433	51.9628	523
67.7219	51.168	515
68.7015	51.0686	514
69.6768	50.9693	513
70.3718	50.6712	510
72.175	51.168	515
73.8575	51.5654	519
74.546	51.2673	516
75.2216	50.9693	513
77.5209	51.7641	521
79.2509	52.1615	525
80.2327	52.0622	524
81.676	52.2609	526
83.128	52.4596	528
84.429	52.559	529
85.249	52.3603	527
86.0603	52.1615	525
87.3613	52.2609	526
87.9937	51.9628	523
90.1467	52.559	529
92.8434	53.4532	538
93.6569	53.2545	536
93.5773	52.559	529
94.7209	52.559	529
95.8644	52.559	529
97.008	52.559	529
98.3371	52.6583	530
99.1074	52.4596	528
101.198	52.9564	533
102.35	52.9564	533
102.92	52.6583	530
103.28	52.2609	526
104.219	52.1615	525
104.752	51.8635	522
106.083	51.9628	523
107.418	52.0622	524
109.587	52.559	529
110.103	52.2609	526
110.605	51.9628	523
110.668	51.4661	518
112.003	51.5654	519
113.997	51.9628	523
115.788	52.2609	526
118.481	52.9564	533
120.082	53.1551	535
120.559	52.857	532
121.48	52.7577	531
123.783	53.2545	536
124.475	53.0557	534
125.159	52.857	532
124.647	52.1615	525
126.261	52.3603	527
128.851	52.9564	533
130.247	53.0557	534
131.401	53.0557	534
132.307	52.9564	533
132.708	52.6583	530
133.601	52.559	529
135.254	52.7577	531
137.43	53.1551	535
140.4	53.8506	542
142.877	54.3474	547
143.796	54.248	546
144.446	54.0493	544
145.086	53.8506	542
145.988	53.7512	541
146.069	53.3538	537
146.682	53.1551	535
148.668	53.4532	538
150.666	53.7512	541
152.677	54.0493	544
154.419	54.248	546
155.884	54.3474	547
154.77	53.5525	539
156.513	53.7512	541
158.849	54.1487	545
160.908	54.4467	548
162.092	54.4467	548
161.787	53.9499	543
159.66	52.857	532
159.299	52.3603	527
160.133	52.2609	526
164.643	53.3538	537
167.039	53.7512	541
170.074	54.3474	547
170.943	54.248	546
171.808	54.1487	545
171.717	53.7512	541
171.608	53.3538	537
173.412	53.5525	539
175.873	53.9499	543
179.003	54.5461	549
181.175	54.8441	552
180.055	54.1487	545
179.903	53.7512	541
180.403	53.5525	539
181.568	53.5525	539
185.107	54.248	546
187.311	54.5461	549
187.811	54.3474	547
187.957	54.0493	544
188.437	53.8506	542
188.909	53.6519	540
192.189	54.248	546
196.202	55.0429	554
200.25	55.8377	562
201.465	55.8377	562
204.483	56.3345	567
204.983	56.1358	565
205.11	55.8377	562
202.653	54.8441	552
201.631	54.248	546
203.926	54.5461	549
206.233	54.8441	552
208.554	55.1422	555
210.131	55.2416	556
211.713	55.3409	557
215.211	55.937	563
218.735	56.5332	569
221.511	56.9306	573
220.806	56.4338	568
220.47	56.0364	564
218.545	55.2416	556
219.747	55.2416	556
218.962	54.7448	551
220.552	54.8441	552
220.139	54.4467	548
221.727	54.5461	549
226.162	55.3409	557
231.448	56.3345	567
236.778	57.328	577
239.263	57.6261	580
240.516	57.6261	580
239.686	57.1293	575
239.253	56.7319	571
239.645	56.5332	569
240.875	56.5332	569
243.381	56.8312	572
245.046	56.9306	573
245.425	56.7319	571
247.091	56.8312	572
250.932	57.4274	578
250	56.9306	573
246.854	55.937	563
247.19	55.7383	561
250.617	56.2351	566
252.73	56.4338	568
255.299	56.7319	571
255.635	56.5332	569
254.608	56.0364	564
253.559	55.5396	559
254.768	55.5396	559
258.724	56.1358	565
261.325	56.4338	568
263.015	56.5332	569
264.245	56.5332	569
264.542	56.3345	567
266.237	56.4338	568
266.993	56.3345	567
267.746	56.2351	566
269.445	56.3345	567
273.535	56.9306	573
277.171	57.4274	578
278.421	57.4274	578
277.735	57.03	574
279.948	57.2287	576
282.657	57.5267	579
284.399	57.6261	580
286.145	57.7254	581
288.391	57.9242	583
290.148	58.0235	584
291.41	58.0235	584
290.668	57.6261	580
288.902	57.03	574
288.626	56.7319	571
289.353	56.6325	570
291.605	56.8312	572
295.913	57.4274	578
299.733	57.9242	583
300.477	57.8248	582
297.588	57.03	574
298.829	57.03	574
302.161	57.4274	578
304.46	57.6261	580
306.241	57.7254	581
306.438	57.5267	579
308.221	57.6261	580
312.677	58.2222	586
314.479	58.3216	587
315.21	58.2222	586
321.337	59.1164	595
320.997	58.8184	592
323.365	59.0171	594
324.65	59.0171	594
326.482	59.1164	595
324.463	58.5203	589
322.971	58.0235	584
322.568	57.7254	581
322.709	57.5267	579
325.64	57.8248	582
330.268	58.4209	588
334.358	58.9177	593
335.64	58.9177	593
336.354	58.8184	592
340.485	59.3151	597
342.348	59.4145	598
342.492	59.2158	596
342.05	58.9177	593
339.858	58.3216	587
339.964	58.1229	585
340.646	58.0235	584
341.908	58.0235	584
346.696	58.6196	590
351.51	59.2158	596
356.35	59.8119	602
358.246	59.9113	603
359.549	59.9113	603
360.853	59.9113	603
361.556	59.8119	602
360.446	59.4145	598
362.344	59.5138	599
365.46	59.8119	602
366.761	59.8119	602
367.451	59.7126	601
369.977	59.9113	603
370.049	59.7126	601
368.877	59.3151	597
365.827	58.6196	590
364.614	58.2222	586
365.881	58.2222	586
366.521	58.1229	585
-302.379	41.6219	410
-304.434	42.028	414
-302.806	41.9265	413
-301.914	41.9265	413
-300.292	41.8249	412
-297.948	41.6219	410
-294.163	41.2158	406
-291.119	40.9113	403
-290.247	40.9113	403
-289.376	40.9113	403
-289.937	41.1143	405
-290.489	41.3174	407
-291.744	41.6219	410
-292.986	41.9265	413
-293.507	42.1295	415
-292.61	42.1295	415
-293.822	42.434	418
-292.918	42.434	418
-291.316	42.3325	417
-289.022	42.1295	415
-287.43	42.028	414
-286.535	42.028	414
-282.191	41.5204	409
-282.682	41.7234	411
-285.222	42.231	416
-286.373	42.5356	419
-286.149	42.6371	420
-284.561	42.5356	419
-283.656	42.5356	419
-282.75	42.5356	419
-282.517	42.6371	420
-282.95	42.8401	422
-282.706	42.9416	423
-283.124	43.1447	425
-284.197	43.4492	428
-285.258	43.7538	431
-284.326	43.7538	431
-286.024	44.1598	435
-285.739	44.2613	436
-280.878	43.6522	430
-276.693	43.1447	425
-274.476	42.9416	423
-275.502	43.2462	426
-274.581	43.2462	426
-274.303	43.3477	427
-273.38	43.3477	427
-271.181	43.1447	425
-269.626	43.0431	424
-269.977	43.2462	426
-269.056	43.2462	426
-266.876	43.0431	424
-265.332	42.9416	423
-260.042	42.231	416
-258.52	42.1295	415
-258.864	42.3325	417
-262.293	43.0431	424
-261.377	43.0431	424
-265.375	43.8553	432
-265.053	43.9568	433
-261.067	43.4492	428
-257.103	42.9416	423
-256.188	42.9416	423
-256.481	43.1447	425
-256.765	43.3477	427
-254.044	43.0431	424
-252.531	42.9416	423
-253.401	43.2462	426
-253.073	43.3477	427
-250.968	43.1447	425
-249.461	43.0431	424
-249.131	43.1447	425
-248.212	43.1447	425
-249.039	43.4492	428
-248.114	43.4492	428
-249.499	43.8553	432
-247.414	43.6522	430
-244.192	43.2462	426
-243.271	43.2462	426
-240.643	42.9416	423
-239.162	42.8401	422
-238.815	42.9416	423
-239.587	43.2462	426
-242.588	43.9568	433
-244.443	44.4644	438
-244.052	44.5659	439
-242.549	44.4644	438
-238.844	43.9568	433
-236.26	43.6522	430
-233.141	43.2462	426
-233.311	43.4492	428
-233.471	43.6522	430
-232.001	43.5507	429
-230.535	43.4492	428
-230.146	43.5507	429
-231.356	43.9568	433
-235.209	44.8704	442
-235.314	45.0735	444
-232.243	44.6674	440
-228.663	44.1598	435
-226.152	43.8553	432
-225.219	43.8553	432
-223.765	43.7538	431
-224.385	44.0583	434
-224.991	44.3629	437
-225.072	44.5659	439
-225.655	44.8704	442
-222.157	44.3629	437
-221.213	44.3629	437
-219.764	44.2613	436
-217.818	44.0583	434
-217.379	44.1598	435
-216.439	44.1598	435
-213.517	43.7538	431
-211.105	43.4492	428
-212.144	43.8553	432
-212.188	44.0583	434
-210.277	43.8553	432
-208.858	43.7538	431
-206.962	43.5507	429
-206.515	43.6522	430
-207.498	44.0583	434
-208.463	44.4644	438
-210.833	45.175	445
-209.871	45.175	445
-207.97	44.972	443
-206.078	44.7689	441
-202.334	44.1598	435
-202.782	44.4644	438
-202.757	44.6674	440
-204.558	45.2765	446
-203.137	45.175	445
-198.54	44.3629	437
-198.048	44.4644	438
-196.651	44.3629	437
-195.259	44.2613	436
-193.87	44.1598	435
-192.487	44.0583	434
-192.872	44.3629	437
-191.928	44.3629	437
-190.546	44.2613	436
-188.734	44.0583	434
-188.228	44.1598	435
-189.871	44.7689	441
-191.06	45.2765	446
-192.227	45.7841	451
-191.252	45.7841	451
-189.855	45.6826	450
-188.043	45.4795	448
-184.987	44.972	443
-182.783	44.6674	440
-182.658	44.8704	442
-182.936	45.175	445
-182.383	45.2765	446
-181.012	45.175	445
-179.241	44.972	443
-177.881	44.8704	442
-176.125	44.6674	440
-175.173	44.6674	440
-175.806	45.0735	444
-176.815	45.5811	449
-176.236	45.6826	450
-176.432	45.9871	453
-175.065	45.8856	452
-172.163	45.378	447
-168.898	44.7689	441
-167.183	44.5659	439
-165.856	44.4644	438
-165.285	44.5659	439
-165.085	44.7689	441
-164.504	44.8704	442
-163.178	44.7689	441
-162.593	44.8704	442
-162.369	45.0735	444
-161.409	45.0735	444
-160.449	45.0735	444
-159.489	45.0735	444
-159.244	45.2765	446
-158.28	45.2765	446
-157.316	45.2765	446
-156.702	45.378	447
-155.039	45.175	445
-154.077	45.175	445
-153.803	45.378	447
-153.179	45.4795	448
-152.89	45.6826	450
-152.255	45.7841	451
-151.615	45.8856	452
-149.971	45.6826	450
-148.005	45.378	447
-147.039	45.378	447
-147.053	45.6826	450
-145.431	45.4795	448
-144.785	45.5811	449
-144.455	45.7841	451
-143.48	45.7841	451
-142.189	45.6826	450
-141.53	45.7841	451
-140.867	45.8856	452
-139.58	45.7841	451
-137.991	45.5811	449
-136.41	45.378	447
-136.05	45.5811	449
-135.982	45.8856	452
-135.602	46.0886	454
-135.807	46.4947	458
-134.522	46.3932	457
-132.658	46.0886	454
-130.806	45.7841	451
-133.574	47.1038	464
-133.713	47.5099	468
-132.418	47.4084	467
-128.032	46.1902	455
-125.931	45.7841	451
-126.342	46.2917	456
-125.906	46.4947	458
-125.189	46.5962	459
-124.196	46.5962	459
-122.399	46.2917	456
-120.881	46.0886	454
-119.635	45.9871	453
-118.656	45.9871	453
-117.157	45.7841	451
-115.409	45.4795	448
-114.952	45.6826	450
-114.992	46.0886	454
-114.764	46.3932	457
-114.025	46.4947	458
-113.529	46.6977	460
-112.29	46.5962	459
-111.54	46.6977	460
-110.786	46.7993	461
-109.789	46.7993	461
-108.557	46.6977	460
-107.328	46.5962	459
-105.41	46.1902	455
-103.737	45.8856	452
-102.533	45.7841	451
-101.333	45.6826	450
-101.252	46.0886	454
-101.817	46.7993	461
-101.695	47.2053	465
-101.773	47.7129	470
-101.185	47.9159	472
-99.3161	47.5099	468
-98.0944	47.4084	467
-97.7085	47.7129	470
-95.8696	47.3068	466
-94.4551	47.1038	464
-93.0493	46.9008	462
-91.8513	46.7993	461
-90.2635	46.4947	458
-88.4938	46.0886	454
-88.2834	46.4947	458
-88.2463	47.0023	463
-86.8686	46.7993	461
-85.4995	46.5962	459
-83.4026	45.9871	453
-82.0594	45.7841	451
-81.2643	45.8856	452
-80.8201	46.1902	455
-80.7138	46.6977	460
-80.066	46.9008	462
-79.0673	46.9008	462
-77.8996	46.7993	461
-76.4026	46.4947	458
-75.4125	46.4947	458
-75.2349	47.0023	463
-75.1961	47.6114	469
-74.1822	47.6114	469
-73.4804	47.8144	471
-72.9238	48.119	474
-71.4441	47.8144	471
-70.2764	47.7129	470
-68.8183	47.4084	467
-66.9376	46.7993	461
-65.5119	46.4947	458
-64.8036	46.6977	460
-64.5028	47.2053	465
-64.1803	47.7129	470
-65.1802	49.2357	485
-64.3962	49.4387	487
-62.9533	49.1341	484
-61.0117	48.4235	477
-59.1003	47.7129	470
-57.9607	47.6114	469
-57.0683	47.7129	470
-57.1256	48.6266	479
-57.027	49.4387	487
-55.8593	49.3372	486
-54.3576	48.9311	482
-52.9838	48.6266	479
-52.3821	49.0326	483
-51.6569	49.3372	486
-50.7104	49.4387	487
-49.7596	49.5402	488
-48.8045	49.6417	489
-47.4545	49.3372	486
-46.022	48.9311	482
-44.7001	48.6266	479
-43.8469	48.8296	481
-43.3411	49.4387	487
-42.7226	49.9463	492
-41.8283	50.1493	494
-40.7604	50.1493	494
-39.6122	50.0478	493
-38.6247	50.1493	494
-37.4047	49.9463	492
-36.1196	49.6417	489
-34.6323	49.0326	483
-34.1445	49.8448	491
-33.0157	49.7432	490
-32.2174	50.1493	494
-31.2756	50.3523	496
-30.2034	50.3523	496
-29.0137	50.1493	494
-27.7761	49.8448	491
-26.6059	49.6417	489
-25.5488	49.6417	489
-24.4416	49.5402	488
-23.3867	49.5402	488
-22.4233	49.7432	490
-21.4077	49.8448	491
-20.3877	49.9463	492
-19.3242	49.9463	492
-18.2235	49.8448	491
-17.0922	49.6417	489
-15.7728	48.8296	481
-14.7023	48.7281	480
-13.7216	48.9311	482
-12.8112	49.4387	487
-11.7826	49.5402	488
-10.7497	49.6417	489
-9.63315	49.3372	486
-8.63553	49.6417	489
-7.54746	49.4387	487
-6.48137	49.3372	486
-5.4196	49.2357	485
-4.37117	49.2357	485
-3.30903	49.0326	483
-2.26962	49.1341	484
-1.23093	49.4387	487
-0.179271	49.7432	490
0.881765	49.8448	491
1.94317	49.8448	491
2.99233	49.6417	489
4.02457	49.3372	486
5.07516	49.3372	486
6.15096	49.5402	488
7.29448	50.1493	494
8.43007	50.5554	498
9.58297	50.9614	502
10.7319	51.266	505
11.8704	51.469	507
12.9408	51.3675	506
13.9514	51.063	503
14.9491	50.7584	500
15.7735	49.9463	492
16.8712	50.0478	493
18.0461	50.3523	496
19.1569	50.4539	497
20.1498	50.2508	495
21.0484	49.8448	491
22.0197	49.6417	489
22.9824	49.4387	487
24.1339	49.6417	489
25.3455	49.9463	492
26.5164	50.1493	494
27.8077	50.5554	498
29.1162	50.9614	502
30.4421	51.3675	506
32.0345	52.1797	514
33.2101	52.2812	515
34.1901	52.0781	513
35.299	52.0781	513
36.479	52.1797	514
37.3707	51.8751	511
38.3247	51.6721	509
39.0378	51.1645	504
39.7292	50.6569	499
40.8079	50.6569	499
42.0545	50.8599	501
43.0514	50.7584	500
44.2205	50.8599	501
45.5748	51.1645	504
47.3124	51.8751	511
48.796	52.2812	515
49.7155	52.0781	513
50.23	51.469	507
50.5161	50.6569	499
52.0084	51.063	503
54.2569	52.1797	514
54.8294	51.6721	509
56.0396	51.7736	510
57.5903	52.1797	514
57.6735	51.266	505
59.347	51.7736	510
59.7383	51.1645	504
60.7072	51.063	503
61.9174	51.1645	504
62.5068	50.7584	500
63.4605	50.6569	499
64.1512	50.3523	496
64.9604	50.1493	494
66.5629	50.5554	498
68.3186	51.063	503
69.6819	51.266	505
71.3341	51.6721	509
72.5767	51.7736	510
73.8237	51.8751	511
74.6351	51.6721	509
75.1402	51.266	505
76.3828	51.3675	506
79.314	52.5857	518
80.4338	52.5857	518
81.2387	52.3827	516
82.3541	52.3827	516
83.1461	52.1797	514
84.0933	52.0781	513
84.704	51.7736	510
85.1334	51.3675	506
86.2273	51.3675	506
88.0114	51.7736	510
89.9875	52.2812	515
91.8084	52.6872	519
92.7513	52.5857	518
93.6898	52.4842	517
94.4407	52.2812	515
94.9973	51.9766	512
96.6672	52.2812	515
98.3501	52.5857	518
100.238	52.9918	522
101.561	53.0933	523
102.495	52.9918	522
103.028	52.6872	519
103.548	52.3827	516
104.663	52.3827	516
106.393	52.6872	519
108.344	53.0933	523
109.475	53.0933	523
109.759	52.6872	519
110.668	52.5857	518
111.572	52.4842	517
112.907	52.5857	518
114.027	52.5857	518
114.702	52.3827	516
115.593	52.2812	515
116.48	52.1797	514
119.879	53.1948	524
122.628	53.9054	531
124.708	54.3115	535
123.983	53.4994	527
123.935	52.9918	522
124.344	52.6872	519
126.192	52.9918	522
128.052	53.2963	525
127.71	52.6872	519
127.839	52.2812	515
128.952	52.2812	515
131.834	52.9918	522
134.236	53.4994	527
135.889	53.7024	529
138.068	54.1085	533
140.788	54.7176	539
141.689	54.6161	538
142.587	54.5145	537
142.409	54.007	532
144.369	54.3115	535
144.165	53.8039	530
145.859	54.007	532
147.839	54.3115	535
150.109	54.7176	539
149.59	54.1085	533
151.308	54.3115	535
152.18	54.21	534
152.185	53.8039	530
152.752	53.6009	528
155.643	54.21	534
156.797	54.21	534
157.656	54.1085	533
156.722	53.3979	526
157.559	53.2963	525
158.392	53.1948	524
158.611	52.8903	521
160.351	53.0933	523
164.569	54.1085	533
167.276	54.6161	538
167.812	54.413	536
168.341	54.21	534
167.273	53.4994	527
168.093	53.3979	526
169.552	53.4994	527
170.367	53.3979	526
172.808	53.8039	530
173.626	53.7024	529
176.091	54.1085	533
178.573	54.5145	537
180.069	54.6161	538
182.242	54.9206	541
184.768	55.3267	545
186.628	55.5297	547
186.781	55.2252	544
186.229	54.7176	539
185.656	54.21	534
186.111	54.007	532
188.317	54.3115	535
190.181	54.5145	537
194.549	55.4282	546
196.805	55.7327	549
199.074	56.0373	552
201.355	56.3418	555
201.46	56.0373	552
201.919	55.8343	550
202.369	55.6312	548
204.668	55.9358	551
206.98	56.2403	554
208.178	56.2403	554
208.242	55.9358	551
207.912	55.5297	547
209.477	55.6312	548
211.046	55.7327	549
213.779	56.1388	553
214.197	55.9358	551
213.043	55.3267	545
210.29	54.3115	535
210.657	54.1085	533
213.001	54.413	536
214.559	54.5145	537
215.72	54.5145	537
217.285	54.6161	538
220.884	55.2252	544
223.284	55.5297	547
225.288	55.7327	549
226.062	55.6312	548
229.32	56.1388	553
232.183	56.5449	557
233.387	56.5449	557
234.591	56.5449	557
237.912	57.0525	562
239.126	57.0525	562
239.058	56.7479	559
239.837	56.6464	558
241.907	56.8494	560
244.42	57.154	563
246.074	57.2555	564
245.977	56.9509	561
246.309	56.7479	559
247.96	56.8494	560
250.95	57.2555	564
251.275	57.0525	562
252.939	57.154	563
252.351	56.7479	559
252.198	56.4434	556
252.945	56.3418	555
257.35	57.0525	562
262.245	57.8646	570
264.402	58.0676	572
263.781	57.6616	568
263.609	57.357	565
262.955	56.9509	561
263.697	56.8494	560
263.962	56.6464	558
266.118	56.8494	560
268.761	57.154	563
270.937	57.357	565
273.122	57.56	567
276.767	58.0676	572
279.948	58.4737	576
280.704	58.3722	575
280.476	58.0676	572
281.22	57.9661	571
283.444	58.1691	573
284.683	58.1691	573
286.42	58.2707	574
288.162	58.3722	575
286.889	57.8646	570
287.616	57.7631	569
286.307	57.2555	564
289.056	57.56	567
292.329	57.9661	571
295.106	58.2707	574
295.831	58.1691	573
296.551	58.0676	572
295.705	57.6616	568
296.933	57.6616	568
301.31	58.2707	574
304.132	58.5752	577
305.38	58.5752	577
307.69	58.7782	579
309.475	58.8798	580
310.193	58.7782	579
311.983	58.8798	580
309.996	58.2707	574
310.152	58.0676	572
310.845	57.9661	571
315.358	58.5752	577
316.606	58.5752	577
317.853	58.5752	577
318.547	58.4737	576
317.571	58.0676	572
318.808	58.0676	572
316.687	57.4585	566
318.473	57.56	567
327.028	58.8798	580
328.848	58.9813	581
331.808	59.2858	584
332.501	59.1843	583
335.478	59.4889	586
339.044	59.8949	590
338.589	59.5904	587
336.963	59.0828	582
337.059	58.8798	580
337.729	58.7782	579
338.981	58.7782	579
342.583	59.1843	583
346.202	59.5904	587
350.431	60.098	592
352.305	60.1995	593
353.587	60.1995	593
353.073	59.8949	590
353.147	59.6919	588
357.432	60.1995	593
360.529	60.504	596
361.817	60.504	596
359.45	59.8949	590
355.834	59.0828	582
357.706	59.1843	583
362.045	59.6919	588
364.552	59.8949	590
364.587	59.6919	588
363.37	59.2858	584
364.632	59.2858	584
364.641	59.0828	582
-297.217	41.7824	403
-297.816	41.9897	405
-297.674	42.0934	406
-296.796	42.0934	406
-295.19	41.9897	405
-294.314	41.9897	405
-291.265	41.6787	402
-289.674	41.575	401
-288.087	41.4713	400
-287.222	41.4713	400
-287.789	41.6787	402
-289.061	41.9897	405
-292.455	42.6118	411
-293.695	42.9228	414
-296.336	43.4412	419
-295.431	43.4412	419
-293.119	43.2339	417
-290.115	42.9228	414
-285.727	42.4044	409
-284.147	42.3008	408
-283.265	42.3008	408
-280.306	41.9897	405
-281.501	42.3008	408
-281.994	42.5081	410
-282.479	42.7155	412
-282.272	42.8192	413
-280.698	42.7155	412
-280.487	42.8192	413
-279.594	42.8192	413
-278.026	42.7155	412
-279.826	43.1302	416
-278.256	43.0265	415
-278.696	43.2339	417
-279.127	43.4412	419
-278.885	43.5449	420
-279.963	43.8559	423
-279.048	43.8559	423
-281.422	44.3743	428
-278.53	44.0633	425
-277.612	44.0633	425
-274.74	43.7523	422
-273.179	43.6486	421
-271.622	43.5449	420
-271.358	43.6486	421
-269.164	43.4412	419
-268.258	43.4412	419
-267.352	43.4412	419
-266.446	43.4412	419
-264.907	43.3375	418
-264.635	43.4412	419
-263.1	43.3375	418
-260.941	43.1302	416
-259.417	43.0265	415
-256.028	42.6118	411
-255.761	42.7155	412
-257.344	43.1302	416
-259.527	43.6486	421
-258.617	43.6486	421
-257.095	43.5449	420
-253.137	43.0265	415
-251.025	42.8192	413
-250.132	42.8192	413
-249.239	42.8192	413
-248.346	42.8192	413
-247.453	42.8192	413
-248.949	43.2339	417
-251.021	43.7523	422
-250.702	43.8559	423
-248.606	43.6486	421
-245.343	43.2339	417
-243.269	43.0265	415
-245.876	43.6486	421
-247.875	44.167	426
-246.955	44.167	426
-248.344	44.5817	430
-245.688	44.2707	427
-243.045	43.9596	424
-239.845	43.5449	420
-238.368	43.4412	419
-237.462	43.4412	419
-237.685	43.6486	421
-240.15	44.2707	427
-241.468	44.6854	431
-242.768	45.1001	435
-241.828	45.1001	435
-239.226	44.789	432
-236.086	44.3743	428
-232.963	43.9596	424
-230.952	43.7523	422
-231.675	44.0633	425
-229.671	43.8559	423
-227.675	43.6486	421
-226.226	43.5449	420
-225.854	43.6486	421
-226.547	43.9596	424
-227.759	44.3743	428
-229.484	44.8927	433
-226.964	44.5817	430
-224.984	44.3743	428
-221.441	43.8559	423
-219.484	43.6486	421
-220.65	44.0633	425
-220.766	44.2707	427
-218.813	44.0633	425
-218.407	44.167	426
-217.997	44.2707	427
-217.582	44.3743	428
-216.657	44.3743	428
-216.235	44.478	429
-215.308	44.478	429
-213.881	44.3743	428
-211.961	44.167	426
-211.04	44.167	426
-209.132	43.9596	424
-208.216	43.9596	424
-208.277	44.167	426
-207.356	44.167	426
-206.92	44.2707	427
-205.997	44.2707	427
-205.074	44.2707	427
-205.107	44.478	429
-205.132	44.6854	431
-205.147	44.8927	433
-206.569	45.4111	438
-204.684	45.2038	436
-200.937	44.5817	430
-198.612	44.2707	427
-197.689	44.2707	427
-196.766	44.2707	427
-195.843	44.2707	427
-196.29	44.5817	430
-195.814	44.6854	431
-195.335	44.789	432
-194.401	44.789	432
-193.467	44.789	432
-193.425	44.9964	434
-191.6	44.789	432
-190.224	44.6854	431
-188.853	44.5817	430
-187.924	44.5817	430
-186.994	44.5817	430
-186.498	44.6854	431
-187.288	45.1001	435
-187.204	45.3074	437
-188.391	45.8258	442
-187.011	45.7221	441
-185.636	45.6185	440
-184.265	45.5148	439
-181.646	45.1001	435
-181.121	45.2038	436
-181.005	45.4111	438
-181.703	45.8258	442
-181.565	46.0332	444
-179.792	45.8258	442
-178.027	45.6185	440
-176.673	45.5148	439
-175.724	45.5148	439
-175.173	45.6185	440
-174.618	45.7221	441
-174.452	45.9295	443
-174.278	46.1369	445
-173.316	46.1369	445
-172.354	46.1369	445
-170.237	45.8258	442
-168.132	45.5148	439
-166.422	45.3074	437
-164.341	44.9964	434
-163.403	44.9964	434
-163.962	45.4111	438
-163.387	45.5148	439
-162.438	45.5148	439
-160.754	45.3074	437
-160.906	45.6185	440
-159.955	45.6185	440
-158.642	45.5148	439
-158.053	45.6185	440
-158.173	45.9295	443
-157.215	45.9295	443
-156.257	45.9295	443
-154.949	45.8258	442
-152.6	45.4111	438
-152.692	45.7221	441
-152.427	45.9295	443
-152.495	46.2405	446
-151.871	46.3442	447
-150.904	46.3442	447
-148.932	46.0332	444
-147.305	45.8258	442
-145.688	45.6185	440
-144.408	45.5148	439
-143.785	45.6185	440
-143.808	45.9295	443
-142.85	45.9295	443
-140.612	45.5148	439
-140.617	45.8258	442
-139.661	45.8258	442
-139.961	46.2405	446
-138.997	46.2405	446
-137.414	46.0332	444
-135.84	45.8258	442
-134.274	45.6185	440
-134.232	45.9295	443
-134.477	46.3442	447
-133.212	46.2405	446
-132.841	46.4479	448
-131.873	46.4479	448
-131.197	46.5516	449
-129.066	46.1369	445
-127.528	45.9295	443
-126.285	45.8258	442
-130.433	47.692	460
-129.157	47.5884	459
-124.815	46.3442	447
-124.679	46.6553	450
-124.806	47.07	454
-124.643	47.381	457
-123.385	47.2773	456
-122.399	47.2773	456
-120.881	47.07	454
-119.107	46.7589	451
-117.87	46.6553	450
-115.598	46.1369	445
-114.379	46.0332	444
-113.419	46.0332	444
-113.219	46.3442	447
-113.257	46.7589	451
-112.531	46.8626	452
-111.554	46.8626	452
-111.556	47.2773	456
-111.297	47.5884	459
-109.825	47.381	457
-108.837	47.381	457
-107.141	47.07	454
-105.224	46.6553	450
-103.556	46.3442	447
-101.442	45.8258	442
-100.487	45.8258	442
-100.432	46.2405	446
-100.36	46.6553	450
-100.713	47.2773	456
-101.039	47.8994	462
-100.473	48.1068	464
-99.4703	48.1068	464
-97.6184	47.692	460
-95.9939	47.381	457
-95.2138	47.4847	458
-94.4295	47.5884	459
-93.8444	47.7957	461
-92.2437	47.4847	458
-90.8551	47.2773	456
-89.081	46.8626	452
-87.3242	46.4479	448
-86.5486	46.5516	449
-86.1497	46.8626	452
-85.738	47.1736	455
-84.5681	47.07	454
-83.2185	46.8626	452
-81.8775	46.6553	450
-81.4441	46.9663	453
-81.1753	47.381	457
-80.3629	47.4847	458
-79.1995	47.381	457
-78.725	47.692	460
-77.7306	47.692	460
-76.2358	47.381	457
-75.2479	47.381	457
-74.4225	47.4847	458
-73.7531	47.692	460
-73.075	47.8994	462
-72.0763	47.8994	462
-70.7699	47.692	460
-70.6856	48.3141	466
-69.6783	48.3141	466
-68.5236	48.2104	465
-66.6471	47.5884	459
-65.3688	47.381	457
-63.6766	46.8626	452
-62.5607	46.7589	451
-61.9955	47.07	454
-62.2236	48.0031	463
-61.7516	48.4178	467
-60.612	48.3141	466
-59.3489	48.1068	464
-58.2201	48.0031	463
-57.3428	48.1068	464
-56.3398	48.1068	464
-55.3367	48.1068	464
-54.3337	48.1068	464
-54.7099	49.3509	476
-53.5681	49.2472	475
-52.8732	49.5582	478
-52.1652	49.8693	481
-51.4443	50.1803	484
-50.2939	50.0766	483
-49.3518	50.1803	484
-48.7047	50.595	488
-47.3569	50.284	485
-45.4491	49.3509	476
-43.207	48.0031	463
-42.2973	48.1068	464
-41.5612	48.4178	467
-40.5517	48.4178	467
-39.5422	48.4178	467
-39.0277	49.0399	473
-38.9694	50.284	485
-38.2337	50.6987	489
-36.9486	50.3877	486
-35.5287	49.8693	481
-34.3455	49.6619	479
-33.1709	49.4546	477
-32.2746	49.6619	479
-31.6956	50.3877	486
-30.9603	50.9061	491
-29.8989	50.9061	491
-28.6613	50.595	488
-27.4367	50.284	485
-26.1162	49.7656	480
-25.1308	49.8693	481
-24.0409	49.7656	480
-23.0992	49.973	482
-22.1487	50.1803	484
-21.1897	50.3877	486
-20.222	50.595	488
-19.167	50.595	488
-18.075	50.4914	487
-16.9174	50.1803	484
-15.5432	49.1435	474
-14.4879	49.0399	473
-13.6647	49.7656	480
-12.6008	49.6619	479
-11.6619	50.0766	483
-10.5958	49.973	482
-9.57368	50.0766	483
-8.49426	49.8693	481
-7.45447	49.8693	481
-6.40135	49.7656	480
-5.35255	49.6619	479
-4.28104	49.2472	475
-3.24738	49.1435	474
-2.24617	49.6619	479
-1.22587	50.284	485
-0.178539	50.595	488
0.876378	50.595	488
1.92734	50.4914	487
2.9495	49.973	482
3.94176	49.3509	476
4.94985	49.1435	474
6.02492	49.5582	478
7.14681	50.1803	484
8.24387	50.4914	487
9.39207	51.0097	492
10.4981	51.2171	494
11.6363	51.5281	497
12.7874	51.8392	500
13.8405	51.7355	499
14.7398	51.1134	493
15.549	50.284	485
16.6317	50.3877	486
17.9006	51.0097	492
19.1183	51.4245	496
20.3127	51.7355	499
21.3056	51.5281	497
22.1548	51.0097	492
22.9824	50.4914	487
24.0352	50.4914	487
25.1395	50.595	488
26.3017	50.8024	490
27.4168	50.9061	491
28.8842	51.6318	498
29.9608	51.6318	498
31.1619	51.8392	500
32.6942	52.5649	507
34.0568	52.9796	511
35.1614	52.9796	511
36.0531	52.6686	508
36.4931	51.7355	499
37.1953	51.2171	494
38.2632	51.2171	494
39.2515	51.1134	493
40.0719	50.8024	490
41.1311	50.8024	490
42.2764	50.9061	491
43.6909	51.3208	495
45.1227	51.7355	499
46.6643	52.2539	504
47.8485	52.3576	505
48.9402	52.3576	505
49.8337	52.1502	503
50.5161	51.7355	499
51.4914	51.6318	498
52.3569	51.4245	496
53.9677	51.9428	501
54.2815	51.2171	494
54.9012	50.8024	490
56.0747	50.9061	491
57.2524	51.0097	492
58.9086	51.5281	497
59.8623	51.4245	496
61.1802	51.6318	498
62.1318	51.5281	497
62.5703	51.0097	492
63.5045	50.9061	491
64.9604	51.2171	494
66.0283	51.2171	494
67.7753	51.7355	499
68.992	51.8392	500
70.7735	52.3576	505
72.2921	52.6686	508
73.3903	52.6686	508
74.1952	52.4612	506
74.8426	52.1502	503
75.628	51.9428	501
76.8642	52.0465	502
78.5705	52.4612	506
80.1366	52.7723	509
81.0773	52.6686	508
82.1755	52.6686	508
83.2736	52.6686	508
84.2057	52.5649	507
84.7969	52.2539	504
85.3752	51.9428	501
85.9405	51.6318	498
86.8423	51.5281	497
89.155	52.2539	504
90.7816	52.5649	507
91.6964	52.4612	506
92.0567	52.0465	502
92.9564	51.9428	501
94.7902	52.3576	505
97.021	52.9796	511
98.8938	53.3943	515
100.395	53.6017	517
101.317	53.498	516
101.837	53.187	513
102.344	52.876	510
103.04	52.6686	508
104.549	52.876	510
105.858	52.9796	511
106.963	52.9796	511
108.913	53.3943	515
109.599	53.187	513
111.14	53.3943	515
112.035	53.2907	514
112.046	52.7723	509
112.701	52.5649	507
113.797	52.5649	507
115.347	52.7723	509
117.591	53.2907	514
120.549	54.1201	522
123.776	55.0532	531
123.042	54.2238	523
122.985	53.7054	518
123.865	53.6017	517
124.983	53.6017	517
125.856	53.498	516
125.988	53.0833	512
127.839	53.3943	515
128.452	53.187	513
130.571	53.6017	517
132.707	54.0164	521
134.347	54.2238	523
135.219	54.1201	522
135.302	53.7054	518
137.476	54.1201	522
138.073	53.9127	520
139.465	54.0164	521
141.67	54.4311	525
141.989	54.1201	522
144.214	54.5348	526
142.588	53.498	516
144.539	53.8091	519
144.819	53.498	516
144.238	52.876	510
145.625	52.9796	511
147.591	53.2907	514
148.992	53.3943	515
149.813	53.2907	514
150.924	53.2907	514
152.036	53.2907	514
153.743	53.498	516
156.359	54.0164	521
158.089	54.2238	523
157.698	53.7054	518
158.511	53.6017	517
159.32	53.498	516
160.435	53.498	516
161.551	53.498	516
163.612	53.8091	519
164.416	53.7054	518
166.495	54.0164	521
167.299	53.9127	520
169.071	54.1201	522
171.178	54.4311	525
172.969	54.6385	527
174.439	54.7422	528
177.243	55.2606	533
179.399	55.5716	536
181.568	55.8826	539
184.429	56.401	544
185.264	56.2973	543
185.064	55.8826	539
184.502	55.3642	534
182.875	54.5348	526
183.662	54.4311	525
184.797	54.4311	525
186.64	54.6385	527
187.779	54.6385	527
187.484	54.2238	523
185.73	53.3943	515
188.657	53.9127	520
191.241	54.3274	524
192.741	54.4311	525
197.199	55.3642	534
202.068	56.401	544
206.607	57.3341	553
206.299	56.9194	549
205.218	56.2973	543
202.971	55.3642	534
203.743	55.2606	533
205.28	55.3642	534
206.048	55.2606	533
205.645	54.8458	529
204.443	54.2238	523
204.788	54.0164	521
206.704	54.2238	523
210.617	54.9495	530
215.358	55.8826	539
210.096	54.2238	523
210.419	54.0164	521
214.793	54.8458	529
217.161	55.1569	532
219.953	55.5716	536
221.112	55.5716	536
221.856	55.4679	535
221.762	55.1569	532
226.264	55.9863	540
231.222	56.9194	549
234.102	57.3341	553
235.297	57.3341	553
235.637	57.1268	551
235.109	56.7121	547
236.291	56.7121	547
237.04	56.6084	546
238.22	56.6084	546
239.4	56.6084	546
244.106	57.4378	554
245.746	57.5415	555
249.615	58.1635	561
251.722	58.3709	563
251.592	58.0599	560
251.899	57.8525	558
250.838	57.3341	553
252.033	57.3341	553
254.144	57.5415	555
256.724	57.8525	558
259.317	58.1635	561
259.601	57.9562	559
259.876	57.7488	557
259.674	57.4378	554
260.401	57.3341	553
262.07	57.4378	554
262.792	57.3341	553
263.987	57.3341	553
262.306	56.7121	547
263.488	56.7121	547
271.444	58.1635	561
275.087	58.6819	566
276.799	58.7856	567
275.083	58.1635	561
276.295	58.1635	561
278.003	58.2672	562
279.218	58.2672	562
281.93	58.5783	565
282.149	58.3709	563
283.869	58.4746	564
284.077	58.2672	562
285.292	58.2672	562
287.527	58.4746	564
289.77	58.6819	566
292.021	58.8893	568
293.766	58.993	569
293.959	58.7856	567
294.143	58.5783	565
295.365	58.5783	565
297.636	58.7856	567
300.97	59.2003	571
302.733	59.304	572
303.97	59.304	572
305.206	59.304	572
308.05	59.615	575
309.831	59.7187	576
309.996	59.5114	574
309.068	59.0967	570
308.123	58.6819	566
307.707	58.3709	563
310.57	58.6819	566
312.895	58.8893	568
315.229	59.0967	570
316.461	59.0967	570
316.579	58.8893	568
316.128	58.5783	565
316.788	58.4746	564
320.262	58.8893	568
323.188	59.2003	571
326.695	59.615	575
331.36	60.2371	581
333.761	60.4445	583
337.32	60.8592	587
336.858	60.5482	584
334.068	59.8224	577
332.991	59.4077	573
334.813	59.5114	574
336.053	59.5114	574
336.119	59.304	572
339.715	59.7187	576
345.103	60.4445	583
348.146	60.7555	586
345.239	60.0298	579
344.695	59.7187	576
345.94	59.7187	576
347.185	59.7187	576
349.64	59.9261	578
350.283	59.8224	577
350.312	59.615	575
352.777	59.8224	577
355.252	60.0298	579
358.351	60.3408	582
359.609	60.3408	582
360.247	60.2371	581
359.636	59.9261	578
360.886	59.9261	578
360.256	59.615	575
-297.954	42.7593	404
-296.346	42.6535	403
-292.542	42.2301	399
-290.948	42.1243	398
-290.088	42.1243	398
-292.134	42.5476	402
-290.541	42.4418	401
-288.951	42.3359	400
-288.087	42.3359	400
-287.222	42.3359	400
-287.073	42.4418	401
-286.92	42.5476	402
-290.321	43.1827	408
-293.695	43.8177	414
-294.215	44.0294	416
-293.315	44.0294	416
-291.713	43.9235	415
-285.21	43.0768	407
-282.234	42.7593	404
-279.968	42.5476	402
-281.182	42.8651	405
-278.23	42.5476	402
-280.811	43.0768	407
-279.931	43.0768	407
-279.737	43.1827	408
-277.488	42.971	406
-277.292	43.0768	407
-277.091	43.1827	408
-276.209	43.1827	408
-277.351	43.5002	411
-277.136	43.606	412
-278.256	43.9235	415
-277.359	43.9235	415
-275.13	43.7119	413
-274.237	43.7119	413
