-192.283	63.9501	705
-189.406	63.4965	700
-186.819	63.1337	696
-184.25	62.7708	692
-182.226	62.5894	690
-180.21	62.408	688
-177.684	62.0452	684
-174.917	61.5916	679
-173.96	61.773	681
-171.982	61.5916	679
-170.011	61.4102	677
-168.548	61.4102	677
-166.591	61.2288	675
-163.909	60.7752	670
-162.703	60.8659	671
-162.454	61.3195	676
-161.945	61.6823	680
-160.711	61.773	681
-159.005	61.6823	680
-157.072	61.5009	678
-155.147	61.3195	676
-153.231	61.1381	674
-151.999	61.2288	675
-150.986	61.4102	677
-150.185	61.6823	680
-150.246	62.3173	687
-148.545	62.2266	686
-146.847	62.1359	685
-144.093	61.5916	679
-140.315	60.5938	668
-138.039	60.231	664
-136.604	60.231	664
-137.815	61.4102	677
-138.97	62.5894	690
-140.268	63.8593	704
-133.424	61.4102	677
-131.376	61.1381	674
-129.534	60.9566	672
-127.7	60.7752	670
-126.251	60.7752	670
-124.058	60.4124	666
-122.987	60.5938	668
-122.088	60.8659	671
-121.177	61.1381	674
-119.365	60.9566	672
-119.667	61.8637	682
-118.886	62.2266	686
-117.232	62.1359	685
-115.075	61.773	681
-112.769	61.3195	676
-110.155	60.6845	669
-107.571	60.0496	662
-107.263	60.6845	669
-106.449	61.0474	673
-105.306	61.2288	675
-104.463	61.5916	679
-103.298	61.773	681
-102.424	62.1359	685
-100.943	62.1359	685
-99.4625	62.1359	685
-97.4096	61.773	681
-95.5148	61.5009	678
-94.604	61.8637	682
-92.3104	61.3195	676
-89.5052	60.4124	666
-87.6688	60.1403	663
-86.2356	60.1403	663
-86.4652	61.3195	676
-86.5128	62.408	688
-84.9019	62.3173	687
-83.2954	62.2266	686
-82.528	62.7708	692
-81.0321	62.7708	692
-79.5362	62.7708	692
-78.2659	62.9523	694
-76.3232	62.5894	690
-74.9401	62.6801	691
-73.9778	63.1337	696
-72.5773	63.2244	697
-70.9687	63.1337	696
-69.0649	62.7708	692
-67.9595	63.1337	696
-66.3595	63.043	695
-65.417	63.5872	701
-63.9017	63.5872	701
-61.4074	62.5894	690
-59.3948	62.0452	684
-57.5775	61.6823	680
-56.5201	62.1359	685
-55.441	62.5894	690
-54.4186	63.1337	696
-52.838	63.043	695
-51.4833	63.2244	697
-50.3351	63.6779	702
-49.2348	64.2222	708
-48.0412	64.6757	713
-46.5652	64.7664	714
-44.8325	64.4943	711
-43.2955	64.4943	711
-41.3474	63.8593	704
-39.6559	63.5872	701
-38.0317	63.4058	699
-36.3117	63.043	695
-34.659	62.7708	692
-33.259	62.9523	694
-31.8045	63.043	695
-30.2149	62.8615	693
-28.6754	62.7708	692
-27.1009	62.5894	690
-25.6094	62.5894	690
-24.1527	62.6801	691
-22.7574	62.9523	694
-21.5022	63.6779	702
-20.1555	64.2222	708
-18.625	64.2222	708
-16.9255	63.5872	701
-15.3002	63.1337	696
-13.6767	62.5894	690
-12.1674	62.4987	689
-10.7555	62.9523	694
-9.3353	63.4965	700
-7.81093	63.4058	699
-6.25483	62.9523	694
-4.70664	62.3173	687
-3.16996	61.3195	676
-1.70611	61.2288	675
-0.24915	61.773	681
1.214	61.3195	676
2.64366	60.5938	668
4.04485	59.9588	661
5.51515	60.4124	666
6.96529	60.5031	667
8.5206	61.3195	676
10.2034	62.6801	691
11.8495	63.4965	700
13.2673	63.043	695
14.7909	63.1337	696
16.3891	63.4965	700
18.0558	64.0408	706
19.7206	64.4943	711
21.3174	64.6757	713
22.6984	64.2222	708
24.4	64.6757	713
25.7958	64.3129	709
27.2513	64.1315	707
28.7797	64.1315	707
30.1365	63.7686	703
31.386	63.2244	697
32.8927	63.2244	697
34.5475	63.4965	700
36.3183	63.9501	705
38.1644	64.4943	711
39.8689	64.7664	714
41.3543	64.6757	713
42.5948	64.2222	708
43.5644	63.4058	699
45.0109	63.3151	698
46.7864	63.6779	702
48.0975	63.4058	699
49.4666	63.2244	697
50.6808	62.8615	693
51.7271	62.3173	687
53.0573	62.1359	685
54.3788	61.9544	683
56.1824	62.3173	687
58.423	63.1337	696
60.2719	63.4965	700
62.5795	64.3129	709
64.3834	64.585	712
65.6448	64.3129	709
66.4195	63.5872	701
67.8379	63.4965	700
68.7567	62.9523	694
69.852	62.5894	690
71.7571	62.9523	694
74.4185	63.9501	705
77.5583	65.3107	720
80.1037	66.1271	729
81.0073	65.5828	723
81.7708	64.9479	716
81.9222	63.8593	704
81.5476	62.408	688
82.5521	62.0452	684
84.7678	62.5894	690
87.1345	63.2244	697
89.5314	63.8593	704
91.4413	64.1315	707
92.5751	63.8593	704
94.097	63.8593	704
94.1248	62.8615	693
95.8988	63.043	695
97.6815	63.2244	697
99.3305	63.3151	698
100.262	62.9523	694
101.029	62.4987	689
101.328	61.773	681
103.102	61.9544	683
105.956	62.7708	692
108.384	63.3151	698
109.735	63.2244	697
111.402	63.3151	698
112.425	63.043	695
113.6	62.8615	693
114.599	62.5894	690
116.091	62.5894	690
117.753	62.6801	691
118.557	62.3173	687
119.692	62.1359	685
121.88	62.4987	689
124.444	63.043	695
129.571	64.8571	715
130.566	64.585	712
131.735	64.4036	710
132.894	64.2222	708
134.235	64.1315	707
133.843	63.2244	697
134.961	63.043	695
136.463	63.043	695
138.76	63.4058	699
141.676	64.0408	706
141.579	63.3151	698
143.908	63.6779	702
147.083	64.4036	710
148.618	64.4036	710
149.306	64.0408	706
148.483	63.043	695
149.337	62.7708	692
151.269	62.9523	694
153.43	63.2244	697
154.937	63.2244	697
158.239	63.9501	705
162.482	65.0386	717
165.863	65.7642	725
166.968	65.5828	723
165.267	64.3129	709
165.389	63.7686	703
166.908	63.7686	703
171.542	64.9479	716
174.783	65.5828	723
177.809	66.1271	729
180.861	66.6713	735
183.691	67.1249	740
185.541	67.2156	741
185.123	66.4899	733
187.471	66.762	736
188.292	66.4899	733
187.804	65.7642	725
188.065	65.3107	720
186.725	64.3129	709
188.788	64.4943	711
192.734	65.3107	720
194.021	65.22	719
194.759	64.9479	716
194.662	64.4036	710
196.197	64.4036	710
199.403	64.9479	716
201.792	65.22	719
203.347	65.22	719
204.331	65.0386	717
203.01	64.1315	707
202.223	63.4058	699
204.609	63.6779	702
206.126	63.6779	702
207.348	63.5872	701
209.757	63.8593	704
212.48	64.2222	708
215.522	64.6757	713
217.367	64.7664	714
218.298	64.585	712
213.97	62.8615	693
215.157	62.7708	692
216.966	62.8615	693
217.203	62.4987	689
216.471	61.8637	682
216.667	61.5009	678
220.385	62.1359	685
222.513	62.3173	687
223.02	62.0452	684
225.155	62.2266	686
226.969	62.3173	687
232.112	63.3151	698
235.963	63.9501	705
238.835	64.3129	709
242.063	64.7664	714
240.877	64.0408	706
239.656	63.3151	698
239.437	62.8615	693
241.978	63.1337	696
245.932	63.7686	703
248.86	64.1315	707
248.971	63.7686	703
246.928	62.8615	693
246.992	62.4987	689
248.121	62.408	688
249.971	62.4987	689
253.285	62.9523	694
256.254	63.3151	698
257.763	63.3151	698
257.786	62.9523	694
257.418	62.4987	689
256.277	61.8637	682
258.129	61.9544	683
262.266	62.5894	690
265.669	63.043	695
267.94	63.2244	697
268.287	62.9523	694
266.289	62.1359	685
264.642	61.4102	677
265.713	61.3195	676
268.755	61.6823	680
273.007	62.3173	687
277.289	62.9523	694
275.977	62.3173	687
279.078	62.6801	691
282.601	63.1337	696
283.29	62.9523	694
282.738	62.4987	689
282.577	62.1359	685
283.643	62.0452	684
286.373	62.3173	687
290.791	62.9523	694
292.291	62.9523	694
295.485	63.3151	698
296.993	63.3151	698
298.93	63.4058	699
300.011	63.3151	698
299.36	62.8615	693
299.122	62.4987	689
301.047	62.5894	690
308.239	63.7686	703
310.199	63.8593	704
309.064	63.3151	698
307.014	62.5894	690
309.4	62.7708	692
313.142	63.2244	697
316.906	63.6779	702
320.238	64.0408	706
319.941	63.6779	702
319.627	63.3151	698
318.375	62.7708	692
319.871	62.7708	692
322.76	63.043	695
327.062	63.5872	701
328.577	63.5872	701
324.442	62.4987	689
325.458	62.408	688
329.797	62.9523	694
331.774	63.043	695
335.674	63.4965	700
339.596	63.9501	705
339.669	63.6779	702
341.672	63.7686	703
345.144	64.1315	707
346.673	64.1315	707
348.694	64.2222	708
346.267	63.4965	700
347.283	63.4058	699
351.289	63.8593	704
357.321	64.6757	713
360.876	65.0386	717
365.459	65.5828	723
367.529	65.6735	724
373.683	66.4899	733
374.243	66.3085	731
373.253	65.8549	726
373.79	65.6735	724
374.318	65.4921	722
373.796	65.1293	718
372.734	64.6757	713
372.701	64.4036	710
374.763	64.4943	711
378.946	64.9479	716
383.151	65.4014	721
384.176	65.3107	720
383.054	64.8571	715
382.986	64.585	712
382.905	64.3129	709
381.184	63.7686	703
381.07	63.4965	700
382.037	63.4058	699
385.194	63.6779	702
386.712	63.6779	702
389.888	63.9501	705
393.078	64.2222	708
397.953	64.7664	714
401.734	65.1293	718
406.656	65.6735	724
408.785	65.7642	725
408.089	65.4014	721
409.079	65.3107	720
408.924	65.0386	717
408.757	64.7664	714
408.576	64.4943	711
408.383	64.2222	708
408.176	63.9501	705
411.444	64.2222	708
415.308	64.585	712
417.432	64.6757	713
418.973	64.6757	713
419.335	64.4943	711
415.545	63.6779	702
414.092	63.2244	697
413.81	62.9523	694
415.908	63.043	695
419.813	63.4058	699
424.338	63.8593	704
425.255	63.7686	703
424.346	63.4058	699
422.811	62.9523	694
424.923	63.043	695
428.266	63.3151	698
430.39	63.4058	699
433.755	63.6779	702
437.753	64.0408	706
439.279	64.0408	706
439.556	63.8593	704
441.078	63.8593	704
-516.995	65.1024	701
-510.332	64.4523	694
-502.233	63.6165	685
-500.752	63.6165	685
-501.458	63.8951	688
-497.791	63.6165	685
-497.759	63.8022	687
-500.608	64.3595	693
-499.11	64.3595	693
-501.921	64.9167	699
-502.557	65.1953	702
-498.899	64.9167	699
-488.137	63.7094	686
-478.141	62.5949	674
-476.684	62.5949	674
-465.356	61.2947	660
-468.147	61.852	666
-481.423	63.8022	687
-489.02	65.0096	700
-490.989	65.4739	705
-489.465	65.4739	705
-487.941	65.4739	705
-487.797	65.6597	707
-482.829	65.1953	702
-461.429	62.502	673
-459.974	62.502	673
-457.838	62.4092	672
-456.385	62.4092	672
-458.317	62.8735	677
-461.578	63.5236	684
-463.462	63.988	689
-462.643	64.0809	690
-460.483	63.988	689
-458.328	63.8951	688
-454.184	63.5236	684
-452.706	63.5236	684
-452.547	63.7094	686
-450.406	63.6165	685
-452.202	64.0809	690
-453.977	64.5452	695
-453.125	64.6381	696
-448.376	64.1737	691
-449.469	64.5452	695
-448.612	64.6381	696
-447.107	64.6381	696
-441.761	64.0809	690
-438.355	63.8022	687
-434.962	63.5236	684
-433.484	63.5236	684
-434.532	63.8951	688
-436.191	64.3595	693
-437.202	64.7309	697
-431.32	64.0809	690
-424.222	63.245	681
-420.888	62.9664	678
-416.947	62.5949	674
-415.49	62.5949	674
-413.419	62.502	673
-414.413	62.8735	677
-411.119	62.5949	674
-406.016	62.0377	668
-406.994	62.4092	672
-410.369	63.1521	680
-409.501	63.245	681
-412.223	63.8951	688
-410.735	63.8951	688
-412.222	64.3595	693
-410.724	64.3595	693
-407.455	64.0809	690
-403.61	63.7094	686
-404.472	64.0809	690
-405.9	64.5452	695
-400.906	63.988	689
-399.417	63.988	689
-393.885	63.3379	682
-391.835	63.245	681
-397.242	64.3595	693
-395.173	64.2666	692
-391.97	63.988	689
-389.347	63.8022	687
-385.039	63.3379	682
-382.44	63.1521	680
-380.41	63.0593	679
-380.616	63.3379	682
-384.145	64.1737	691
-385.42	64.6381	696
-384.467	64.7309	697
-381.312	64.4523	694
-375.434	63.7094	686
-369.59	62.9664	678
-365.41	62.502	673
-365.577	62.7807	676
-371.657	64.0809	690
-374.457	64.8238	698
-369.742	64.2666	692
-363.457	63.4308	683
-356.681	62.502	673
-352.059	61.9448	667
-351.143	62.0377	668
-348.128	61.7591	665
-343.563	61.2019	659
-339.023	60.6446	653
-339.162	60.9232	656
-341.863	61.6662	664
-342.478	62.0377	668
-342.566	62.3163	671
-345.691	63.1521	680
-347.258	63.7094	686
-347.287	63.988	689
-345.798	63.988	689
-345.808	64.2666	692
-345.804	64.5452	695
-345.293	64.7309	697
-337.867	63.6165	685
-334.422	63.245	681
-331.972	63.0593	679
-331.478	63.245	681
-331.944	63.6165	685
-331.428	63.8022	687
-329.943	63.8022	687
-326.546	63.4308	683
-323.165	63.0593	679
-320.276	62.7807	676
-319.758	62.9664	678
-318.762	63.0593	679
-321.033	63.8022	687
-321.408	64.1737	691
-322.229	64.6381	696
-317.499	63.988	689
-314.634	63.7094	686
-309.042	62.8735	677
-307.579	62.8735	677
-306.115	62.8735	677
-304.652	62.8735	677
-300.501	62.3163	671
-299.942	62.502	673
-298.044	62.4092	672
-305.859	64.3595	693
-305.679	64.6381	696
-300.678	63.8951	688
-297.017	63.4308	683
-292.078	62.6878	675
-286.314	61.7591	665
-284.448	61.6662	664
-285.57	62.2234	670
-287.514	62.9664	678
-289.424	63.7094	686
-286.681	63.4308	683
-282.282	62.7807	676
-284.559	63.6165	685
-286.798	64.4523	694
-288.997	65.2882	703
-283.797	64.4523	694
-279.45	63.8022	687
-273.919	62.8735	677
-272.053	62.7807	676
-268.19	62.2234	670
-266.741	62.2234	670
-264.897	62.1306	669
-263.057	62.0377	668
-261.221	61.9448	667
-260.169	62.0377	668
-263.76	63.245	681
-262.673	63.3379	682
-253.156	61.3876	661
-251.346	61.2947	660
-250.677	61.4805	662
-249.622	61.5733	663
-248.563	61.6662	664
-247.5	61.7591	665
-249.393	62.5949	674
-250.879	63.3379	682
-249.77	63.4308	683
-247.567	63.245	681
-241.758	62.1306	669
-239.593	61.9448	667
-237.795	61.852	666
-235.29	61.5733	663
-233.857	61.5733	663
-235.579	62.4092	672
-234.823	62.5949	674
-232.673	62.4092	672
-230.877	62.3163	671
-228.4	62.0377	668
-224.918	61.4805	662
-222.136	61.109	658
-219.372	60.7375	654
-218.625	60.9232	656
-219.194	61.4805	662
-218.42	61.6662	664
-217.639	61.852	666
-216.524	61.9448	667
-214.437	61.7591	665
-213.96	62.0377	668
-212.516	62.0377	668
-212.968	62.5949	674
-211.511	62.5949	674
-209.742	62.502	673
-210.454	63.1521	680
-207.447	62.6878	675
-204.768	62.3163	671
-202.711	62.1306	669
-202.769	62.5949	674
-204	63.4308	683
-202.82	63.5236	684
-202.519	63.8951	688
-199.863	63.5236	684
-195.774	62.6878	675
-191.724	61.852	666
-189.141	61.4805	662
-186.009	60.9232	656
-183.747	60.6446	653
-181.218	60.2732	649
-181.201	60.7375	654
-182.811	61.7591	665
-184.101	62.6878	675
-183.724	63.0593	679
-182.525	63.1521	680
-181.321	63.245	681
-179.585	63.1521	680
-177.591	62.9664	678
-175.865	62.8735	677
-173.887	62.6878	675
-171.406	62.3163	671
-168.942	61.9448	667
-168.254	62.2234	670
-167.054	62.3163	671
-165.357	62.2234	670
-160.973	61.109	658
-160.035	61.2947	660
-159.81	61.7591	665
-159.564	62.2234	670
-158.351	62.3163	671
-156.199	62.0377	668
-154.06	61.7591	665
-152.164	61.5733	663
-150.958	61.6662	664
-149.522	61.6662	664
-148.979	62.0377	668
-148.639	62.502	673
-147.841	62.7807	676
-145.946	62.5949	674
-144.704	62.6878	675
-141.759	62.0377	668
-138.845	61.3876	661
-135.96	60.7375	654
-134.958	60.9232	656
-134.558	61.3876	661
-133.935	61.7591	665
-131.899	61.4805	662
-129.286	60.9232	656
-129.037	61.4805	662
-127.799	61.5733	663
-125.794	61.2947	660
-123.99	61.109	658
-122.009	60.8304	655
-120.593	60.8304	655
-119.177	60.8304	655
-118.48	61.2019	659
-116.878	61.109	658
-115.807	61.2947	660
-115.593	61.9448	667
-115.178	62.502	673
-113.554	62.4092	672
-111.101	61.852	666
-108.344	61.109	658
-105.459	60.2732	649
-103.896	60.1803	648
-103.76	60.9232	656
-103.59	61.6662	664
-102.309	61.7591	665
-100.871	61.7591	665
-99.8822	62.0377	668
-98.8802	62.3163	671
-97.2845	62.2234	670
-95.8362	62.2234	670
-94.2469	62.1306	669
-92.662	62.0377	668
-90.8083	61.7591	665
-89.102	61.5733	663
-86.7432	60.9232	656
-85.195	60.8304	655
-83.7791	60.8304	655
-83.3691	61.5733	663
-81.9359	61.5733	663
-80.867	61.852	666
-80.8584	62.9664	678
-79.0415	62.6878	675
-77.3524	62.502	673
-75.3337	62.0377	668
-73.8897	62.0377	668
-72.5541	62.1306	669
-71.3205	62.3163	671
-70.703	63.0593	679
-69.949	63.7094	686
-67.967	63.245	681
-66.7878	63.5236	684
-65.4047	63.6165	685
-65.0438	64.7309	697
-63.3547	64.5452	695
-60.6954	63.3379	682
-58.5264	62.5949	674
-56.7307	62.2234	670
-55.3649	62.3163	671
-53.834	62.2234	670
-52.7766	62.6878	675
-51.7736	63.245	681
-50.5231	63.5236	684
-48.1123	62.3163	671
-46.8705	62.5949	674
-46.1546	63.6165	685
-44.6086	63.5236	684
-43.13	63.5236	684
-42.0777	64.1737	691
-40.5252	64.0809	690
-38.8639	63.8022	687
-37.3244	63.7094	686
-35.737	63.5236	684
-34.1582	63.3379	682
-32.636	63.245	681
-31.2554	63.4308	683
-29.7353	63.3379	682
-27.9709	62.6878	675
-26.3154	62.2234	670
-24.6073	61.5733	663
-22.9993	61.109	658
-21.872	61.9448	667
-21.0733	63.8951	688
-19.8992	64.9167	699
-18.3619	64.8238	698
-16.6599	64.0809	690
-15.0144	63.4308	683
-13.4388	62.9664	678
-11.9909	63.0593	679
-10.554	63.245	681
-9.09525	63.3379	682
-7.58744	63.0593	679
-6.04753	62.3163	671
-4.57647	62.0377	668
-3.12307	61.852	666
-1.696	62.3163	671
-0.246589	62.5949	674
1.20322	62.2234	670
2.62387	61.5733	663
4.00813	60.8304	655
5.4489	61.109	658
6.92352	61.5733	663
8.41976	62.0377	668
10.0705	63.3379	682
11.6633	63.988	689
13.1336	63.8951	688
14.5146	63.4308	683
15.9208	63.1521	680
17.5187	63.6165	685
18.9995	63.6165	685
20.54	63.8022	687
21.6404	62.6878	675
23.0996	62.6878	675
24.4496	62.4092	672
26.0179	62.6878	675
27.477	62.6878	675
29.0219	62.8735	677
30.9357	63.8022	687
32.3736	63.7094	686
34.1527	64.2666	692
35.9577	64.8238	698
37.5739	65.0096	700
39.1429	65.1024	701
40.3103	64.5452	695
41.3916	63.8951	688
41.944	62.502	673
43.2053	62.2234	670
45.4535	63.3379	682
47.1342	63.6165	685
48.544	63.5236	684
49.7301	63.1521	680
50.9741	62.8735	677
52.1278	62.502	673
53.5826	62.502	673
54.8739	62.3163	671
56.996	63.0593	679
59.0665	63.7094	686
61.3438	64.5452	695
63.027	64.7309	697
64.0708	64.2666	692
64.714	63.4308	683
65.3182	62.5949	674
66.6761	62.502	673
68.3335	62.6878	675
70.3096	63.1521	680
72.0962	63.4308	683
74.5422	64.2666	692
77.1369	65.1953	702
78.0942	64.7309	697
78.6873	63.988	689
79.2458	63.245	681
80.1252	62.7807	676
81.2245	62.502	673
82.925	62.6878	675
85.8843	63.8022	687
88.7684	64.8238	698
90.2773	64.8238	698
89.6822	63.3379	682
89.9535	62.502	673
90.7292	62.0377	668
92.1732	62.0377	668
94.0377	62.3163	671
95.4882	62.3163	671
97.2277	62.502	673
99.1224	62.7807	676
100.137	62.502	673
101.29	62.3163	671
103.506	62.7807	676
104.347	62.4092	672
105.799	62.4092	672
107.89	62.7807	676
109.352	62.7807	676
110.977	62.8735	677
111.61	62.4092	672
111.717	61.6662	664
113.152	61.6662	664
114.933	61.852	666
118.818	63.1521	680
119.758	62.8735	677
121.4	62.9664	678
123.228	63.1521	680
127.449	64.5452	695
128.951	64.5452	695
128.389	63.5236	684
129.108	63.1521	680
129.81	62.7807	676
131.077	62.6878	675
132.536	62.6878	675
135.584	63.4308	683
136.659	63.245	681
139.348	63.8022	687
141.448	64.0809	690
143.147	64.1737	691
144.431	64.0809	690
145.5	63.8951	688
145.705	63.3379	682
146.964	63.245	681
149.09	63.5236	684
150.568	63.5236	684
152.714	63.8022	687
155.994	64.5452	695
159.99	65.5668	706
162.431	65.9383	710
162.58	65.381	704
162.004	64.5452	695
163.271	64.4523	694
163.584	63.988	689
166.511	64.5452	695
170.189	65.381	704
173.906	66.2169	713
177.662	67.0527	722
179.223	67.0527	722
177.028	65.6597	707
174.01	63.988	689
175.754	64.0809	690
177.503	64.1737	691
181.328	65.0096	700
182.058	64.7309	697
182.247	64.2666	692
184.009	64.3595	693
185.507	64.3595	693
189.164	65.1024	701
190.951	65.1953	702
191.372	64.8238	698
191.499	64.3595	693
193.276	64.4523	694
197.302	65.2882	703
201.65	66.2169	713
201.481	65.6597	707
200.138	64.7309	697
200.488	64.3595	693
202.277	64.4523	694
203.19	64.2666	692
203.799	63.988	689
204.692	63.8022	687
207.078	64.0809	690
205.546	63.1521	680
207.016	63.1521	680
209.713	63.5236	684
209.648	63.0593	679
210.805	62.9664	678
214.149	63.5236	684
215.312	63.4308	683
214.249	62.6878	675
214.43	62.3163	671
216.846	62.5949	674
220.246	63.1521	680
221.39	63.0593	679
222.201	62.8735	677
224.326	63.0593	679
228.786	63.8951	688
231.947	64.3595	693
233.782	64.4523	694
232.57	63.7094	686
233.029	63.4308	683
233.819	63.245	681
234.946	63.1521	680
238.502	63.7094	686
242.783	64.4523	694
247.1	65.1953	702
247.2	64.8238	698
244.79	63.8022	687
241.615	62.5949	674
242.35	62.4092	672
245.98	62.9664	678
250	63.6165	685
252.582	63.8951	688
252.962	63.6165	685
254.443	63.6165	685
254.055	63.1521	680
252.143	62.3163	671
254.35	62.502	673
258.085	63.0593	679
261.082	63.4308	683
261.79	63.245	681
262.489	63.0593	679
263.956	63.0593	679
263.861	62.6878	675
262.568	62.0377	668
263.222	61.852	666
266.251	62.2234	670
268.499	62.4092	672
273.165	63.1521	680
274.231	63.0593	679
277.323	63.4308	683
278.391	63.3379	682
279.045	63.1521	680
278.04	62.5949	674
279.082	62.502	673
280.537	62.502	673
284.087	62.9664	678
286.816	63.245	681
288.288	63.245	681
289.335	63.1521	680
291.66	63.3379	682
294.424	63.6165	685
294.608	63.3379	682
294.346	62.9664	678
296.248	63.0593	679
301.662	63.8951	688
304.912	64.2666	692
303.751	63.7094	686
303.454	63.3379	682
304.481	63.245	681
308.2	63.7094	686
312.843	64.3595	693
317.516	65.0096	700
317.206	64.6381	696
315.047	63.8951	688
314.694	63.5236	684
312.013	62.6878	675
313.472	62.6878	675
317.73	63.245	681
314.047	62.2234	670
316.437	62.4092	672
320.728	62.9664	678
324.094	63.3379	682
326.523	63.5236	684
328.481	63.6165	685
331.407	63.8951	688
333.862	64.0809	690
337.784	64.5452	695
336.845	64.0809	690
334.905	63.4308	683
335.889	63.3379	682
337.363	63.3379	682
339.831	63.5236	684
343.305	63.8951	688
346.797	64.2666	692
351.816	64.9167	699
355.855	65.381	704
356.361	65.1953	702
358.898	65.381	704
362.468	65.7525	708
362.97	65.5668	706
363.464	65.381	704
365.504	65.4739	705
365.466	65.1953	702
364.37	64.7309	697
363.252	64.2666	692
365.802	64.4523	694
370.478	65.0096	700
373.054	65.1953	702
372.971	64.9167	699
371.267	64.3595	693
369	63.7094	686
366.163	62.9664	678
367.086	62.8735	677
370.183	63.1521	680
374.385	63.6165	685
376.415	63.7094	686
377.347	63.6165	685
380.487	63.8951	688
384.195	64.2666	692
389.592	64.9167	699
392.782	65.1953	702
394.299	65.1953	702
396.381	65.2882	703
395.636	64.9167	699
393.738	64.3595	693
398.658	64.9167	699
401.315	65.1024	701
400.531	64.7309	697
400.884	64.5452	695
405.282	65.0096	700
409.119	65.381	704
411.225	65.4739	705
412.163	65.381	704
413.685	65.381	704
412.258	64.9167	699
405.482	63.6165	685
402.21	62.8735	677
401.288	62.502	673
405.735	62.9664	678
409.603	63.3379	682
413.488	63.7094	686
414.366	63.6165	685
412.205	63.0593	679
410.626	62.5949	674
413.306	62.7807	676
420.289	63.6165	685
424.233	63.988	689
426.958	64.1737	691
429.692	64.3595	693
431.812	64.4523	694
431.44	64.1737	691
432.933	64.1737	691
-502.982	64.812	682
-491.948	63.5766	669
-483.904	62.7213	660
-482.477	62.7213	660
-479.592	62.5313	658
-481.077	62.9114	662
-486.167	63.7667	671
-489.773	64.4319	678
-488.307	64.4319	678
-483.969	64.0518	674
-481.796	63.9567	673
-476.059	63.3866	667
-466.79	62.3412	656
-461.825	61.866	651
-460.418	61.866	651
-461.831	62.2462	655
-468.85	63.3866	667
-475.116	64.4319	678
-479.239	65.1922	686
-479.846	65.4773	689
-478.356	65.4773	689
-476.867	65.4773	689
-474.688	65.3822	688
-464.947	64.2418	676
-449.773	62.3412	656
-451.772	62.8164	661
-452.387	63.1015	664
-448.914	62.8164	661
-447.486	62.8164	661
-450.78	63.4816	668
-453.372	64.0518	674
-452.586	64.1468	675
-451.795	64.2418	676
-447.669	63.8617	672
-443.56	63.4816	668
-442.116	63.4816	668
-440.672	63.4816	668
-439.228	63.4816	668
-439.75	63.7667	671
-438.953	63.8617	672
-436.849	63.7667	671
-436.696	63.9567	673
-439.769	64.622	680
-437.654	64.5269	679
-434.259	64.2418	676
-432.798	64.2418	676
-427.508	63.6716	670
-422.88	63.1965	665
-422.71	63.3866	667
-420.637	63.2915	666
-421.715	63.6716	670
-422.148	63.9567	673
-419.443	63.7667	671
-413.009	63.0064	663
-408.472	62.5313	658
-405.812	62.3412	656
-404.394	62.3412	656
-402.976	62.3412	656
-405.843	63.0064	663
-403.8	62.9114	662
-398.722	62.3412	656
-396.698	62.2462	655
-393.472	61.9611	652
-393.265	62.1511	654
-400.239	63.4816	668
-400.586	63.7667	671
-400.326	63.9567	673
-395.907	63.4816	668
-395.054	63.5766	669
-397.726	64.2418	676
-398.61	64.622	680
-397.724	64.717	681
-394.506	64.4319	678
-393.04	64.4319	678
-386.954	63.6716	670
-383.78	63.3866	667
-385.777	63.9567	673
-386.036	64.2418	676
-382.868	63.9567	673
-379.713	63.6716	670
-377.7	63.5766	669
-375.129	63.3866	667
-370.325	62.8164	661
-369.454	62.9114	662
-367.467	62.8164	661
-369.361	63.3866	667
-369.574	63.6716	670
-367.576	63.5766	669
-363.394	63.1015	664
-358.688	62.5313	658
-354.008	61.9611	652
-354.22	62.2462	655
-357.114	63.0064	663
-361.045	63.9567	673
-362.796	64.5269	679
-360.796	64.4319	678
-354.031	63.4816	668
-347.836	62.6263	659
-344.309	62.2462	655
-341.323	61.9611	652
-337.306	61.4859	647
-334.869	61.2958	645
-333.475	61.2958	645
-333.625	61.5809	648
-334.788	62.0561	653
-336.95	62.7213	660
-340.607	63.6716	670
-343.208	64.4319	678
-342.247	64.5269	679
-340.779	64.5269	679
-338.312	64.3369	677
-335.853	64.1468	675
-334.889	64.2418	676
-329.482	63.4816	668
-326.074	63.1015	664
-324.15	63.0064	663
-321.743	62.8164	661
-314.014	61.5809	648
-311.649	61.3909	646
-310.732	61.4859	647
-313.159	62.2462	655
-314.122	62.7213	660
-314.117	63.0064	663
-313.627	63.1965	665
-311.251	63.0064	663
-310.752	63.1965	665
-313.036	63.9567	673
-312.97	64.2418	676
-310.126	63.9567	673
-305.002	63.1965	665
-299.912	62.4362	657
-299.401	62.6263	659
-299.333	62.9114	662
-298.802	63.1015	664
-295.127	62.6263	659
-292.811	62.4362	657
-291.391	62.4362	657
-293.06	63.1015	664
-292.942	63.3866	667
-288.878	62.8164	661
-286.58	62.6263	659
-287.319	63.1015	664
-283.3	62.5313	658
-281.878	62.5313	658
-281.734	62.8164	661
-277.337	62.1511	654
-276.767	62.3412	656
-275.348	62.3412	656
-270.172	61.4859	647
-268.358	61.3909	646
-269.441	61.9611	652
-276.254	63.8617	672
-275.21	63.9567	673
-270.501	63.1965	665
-269.063	63.1965	665
-267.223	63.1015	664
-264.587	62.8164	661
-262.362	62.6263	659
-260.541	62.5313	658
-254	61.2958	645
-252.214	61.2008	644
-252.769	61.676	649
-253.69	62.2462	655
-253.429	62.5313	658
-248.943	61.771	650
-246.015	61.3909	646
-244.24	61.2958	645
-245.104	61.866	651
-242.948	61.676	649
-240.801	61.4859	647
-240.512	61.771	650
-239.843	61.9611	652
-239.531	62.2462	655
-237.751	62.1511	654
-234.531	61.676	649
-231.332	61.2008	644
-229.939	61.2008	644
-229.967	61.5809	648
-228.213	61.4859	647
-224.711	60.9157	641
-222.629	60.7256	639
-219.863	60.3455	635
-216.425	59.7753	629
-216.775	60.2505	634
-218.802	61.2008	644
-218.423	61.4859	647
-217.024	61.4859	647
-215.626	61.4859	647
-216.214	62.0561	653
-214.144	61.866	651
-211.43	61.4859	647
-210.68	61.676	649
-209.6	61.771	650
-206.914	61.3909	646
-206.79	61.771	650
-208.544	62.7213	660
-207.118	62.7213	660
-205.379	62.6263	659
-203.645	62.5313	658
-202.837	62.7213	660
-202.936	63.1965	665
-200.893	63.0064	663
-199.46	63.0064	663
-198.624	63.1965	665
-197.779	63.3866	667
-198.987	64.2418	676
-196.941	64.0518	674
-194.034	63.5766	669
-191.436	63.1965	665
-188.57	62.7213	660
-185.158	62.0561	653
-180.37	60.9157	641
-178.705	60.8207	640
-178.984	61.3909	646
-180.062	62.2462	655
-180.828	63.0064	663
-180.477	63.3866	667
-179.304	63.4816	668
-177.86	63.4816	668
-176.416	63.4816	668
-174.71	63.3866	667
-173.268	63.3866	667
-171.568	63.2915	666
-169.618	63.1015	664
-167.676	62.9114	662
-166.496	63.0064	663
-165.311	63.1015	664
-163.383	62.9114	662
-160.484	62.3412	656
-157.853	61.866	651
-157.407	62.2462	655
-156.229	62.3412	656
-154.103	62.0561	653
-151.289	61.4859	647
-148.963	61.1058	643
-147.803	61.2008	644
-146.638	61.2958	645
-146.595	61.866	651
-146.526	62.4362	657
-146.652	63.1015	664
-146.091	63.4816	668
-143.781	63.1015	664
-141.917	62.9114	662
-139.637	62.5313	658
-136.744	61.866	651
-134.297	61.3909	646
-133.312	61.5809	648
-132.929	62.0561	653
-131.921	62.2462	655
-130.505	62.2462	655
-128.103	61.771	650
-125.529	61.2008	644
-124.715	61.4859	647
-123.697	61.676	649
-121.541	61.2958	645
-119.774	61.1058	643
-118.568	61.2008	644
-116.812	61.0107	642
-114.705	60.6306	638
-113.503	60.7256	639
-112.297	60.8207	640
-110.567	60.6306	638
-107.819	59.8704	630
-106.119	59.6803	628
-105.596	60.1555	633
-104.721	60.4405	636
-103.509	60.5356	637
-101.811	60.3455	635
-100.28	60.2505	634
-99.846	60.8207	640
-99.3856	61.3909	646
-96.3205	60.3455	635
-94.7983	60.2505	634
-94.9014	61.2008	644
-94.2353	61.676	649
-93.9767	62.4362	657
-93.1199	62.8164	661
-90.72	62.1511	654
-88.3504	61.4859	647
-86.9517	61.4859	647
-85.4209	61.3909	646
-83.8943	61.2958	645
-83.0117	61.676	649
-81.6087	61.676	649
-80.2058	61.676	649
-79.1671	61.9611	652
-79.1888	63.1015	664
-77.8705	63.1965	665
-75.2836	62.2462	655
-73.4165	61.866	651
-72.2305	62.0561	653
-70.4935	61.771	650
-69.301	61.9611	652
-68.5163	62.5313	658
-68.3175	63.6716	670
-67.5678	64.3369	677
-66.4949	64.717	681
-65.2137	64.9071	683
-62.9907	64.1468	675
-60.62	63.1965	665
-58.4705	62.4362	657
-56.7897	62.1511	654
-55.122	61.866	651
-53.8797	62.0561	653
-52.6288	62.2462	655
-51.3693	62.4362	657
-50.025	62.5313	658
-48.3072	62.1511	654
-46.4632	61.5809	648
-45.5492	62.2462	655
-44.6049	62.9114	662
-43.6304	63.5766	669
-42.4364	63.9567	673
-40.7989	63.6716	670
-38.7632	62.7213	660
-37.2234	62.5313	658
-36.0186	62.9114	662
-35.0577	63.7667	671
-33.9077	64.3369	677
-32.2047	63.8617	672
-30.6605	63.6716	670
-29.0813	63.3866	667
-27.5151	63.1015	664
-25.7655	62.3412	656
-24.2361	62.0561	653
-22.6497	61.5809	648
-21.4457	62.1511	654
-20.1545	62.5313	658
-18.8174	62.8164	661
-17.3359	62.6263	659
-16.008	63.0064	663
-14.5967	63.1015	664
-13.1812	63.1965	665
-11.7966	63.4816	668
-10.4456	64.0518	674
-9.01524	64.2418	676
-7.50922	63.8617	672
-5.99346	63.1965	665
-4.52851	62.8164	661
-3.10431	62.9114	662
-1.68589	63.3866	667
-0.245857	63.8617	672
1.19963	63.4816	668
2.60804	62.6263	659
3.98366	61.866	651
5.38265	61.771	650
6.86086	62.4362	657
8.36934	63.1015	664
9.92285	63.8617	672
11.5279	64.717	681
12.9046	64.2418	676
14.2809	63.8617	672
15.6399	63.4816	668
17.0072	63.1965	665
18.3338	62.8164	661
19.7029	62.6263	659
21.2557	63.0064	663
22.7574	63.1965	665
24.1221	63.0064	663
25.5939	63.1015	664
27.1514	63.3866	667
28.7219	63.6716	670
30.1252	63.5766	669
32.0905	64.622	680
33.6098	64.717	681
34.5668	63.7667	671
36.0173	63.7667	671
37.4119	63.6716	670
39.0343	63.9567	673
40.3086	63.6716	670
41.2584	62.9114	662
42.496	62.6263	659
44.2538	63.1015	664
45.8268	63.2915	666
47.1955	63.1965	665
48.4137	62.9114	662
49.5436	62.5313	658
51.1983	62.8164	661
52.7068	62.9114	662
53.8108	62.5313	658
55.569	62.9114	662
56.6556	62.5313	658
58.7841	63.2915	666
61.6706	64.812	682
62.5894	64.2418	676
63.0085	63.1965	665
63.4769	62.2462	655
64.8928	62.2462	655
66.7137	62.6263	659
68.6553	63.1015	664
70.8295	63.7667	671
71.9569	63.4816	668
73.6207	63.6716	670
75.5172	64.0518	674
76.5174	63.6716	670
77.3839	63.1965	665
78.7029	63.1015	664
80.1383	63.1015	664
81.9422	63.3866	667
84.6342	64.3369	677
84.8259	63.3866	667
86.1385	63.2915	666
86.9207	62.8164	661
86.3447	61.3909	646
87.4695	61.2008	644
89.9655	61.9611	652
91.7954	62.2462	655
93.6382	62.5313	658
95.2051	62.6263	659
97.2162	63.0064	663
98.5006	62.9114	662
100.385	63.1965	665
101.056	62.7213	660
100.62	61.5809	648
102.178	61.676	649
105.177	62.6263	659
108.058	63.4816	668
109.01	63.1965	665
109.783	62.8164	661
110.202	62.2462	655
111.277	62.0561	653
113.207	62.3412	656
115.673	62.9114	662
117.812	63.2915	666
118.177	62.7213	660
118.154	61.9611	652
120.297	62.3412	656
123.385	63.1965	665
126.137	63.8617	672
126.83	63.4816	668
128.082	63.3866	667
128.941	63.1015	664
130.18	63.0064	663
131.415	62.9114	662
134.251	63.5766	669
136.103	63.7667	671
138.988	64.4319	678
140.454	64.4319	678
142.338	64.622	680
143.808	64.622	680
144.637	64.3369	677
145.453	64.0518	674
145.82	63.5766	669
147.707	63.7667	671
150.713	64.4319	678
152.852	64.717	681
154.778	64.9071	683
154.881	64.3369	677
157.269	64.717	681
157.342	64.1468	675
158.566	64.0518	674
160.26	64.1468	675
163.636	64.9071	683
165.354	65.0021	684
164.394	64.0518	674
164.375	63.4816	668
166.315	63.6716	670
169.516	64.3369	677
171.99	64.717	681
173.207	64.622	680
174.677	64.622	680
175.888	64.5269	679
178.923	65.0971	685
180.141	65.0021	684
181.354	64.9071	683
181.759	64.5269	679
184.576	65.0021	684
186.055	65.0021	684
187.808	65.0971	685
189.012	65.0021	684
190.491	65.0021	684
193.092	65.3822	688
194.579	65.3822	688
194.357	64.812	682
194.682	64.4319	678
198.173	65.0971	685
199.945	65.1922	686
200.841	65.0021	684
201.432	64.717	681
196.052	62.5313	658
196.574	62.2462	655
197.083	61.9611	652
198.797	62.0561	653
201.128	62.3412	656
203.781	62.7213	660
208.628	63.7667	671
211.331	64.1468	675
211.529	63.7667	671
211.393	63.2915	666
212.513	63.1965	665
213.628	63.1015	664
216.359	63.4816	668
219.434	63.9567	673
220.889	63.9567	673
221.352	63.6716	670
224.796	64.2418	676
226.927	64.4319	678
226.708	63.9567	673
224.433	62.9114	662
225.523	62.8164	661
228.326	63.1965	665
231.145	63.5766	669
235.025	64.2418	676
237.536	64.5269	679
243.228	65.6673	691
244.013	65.4773	689
240.514	64.1468	675
236.954	62.8164	661
235.859	62.1511	654
238.361	62.4362	657
241.606	62.9114	662
243.404	63.0064	663
247.423	63.6716	670
250.728	64.1468	675
251.066	63.8617	672
248.761	62.9114	662
249.815	62.8164	661
252.764	63.1965	665
256.877	63.8617	672
257.561	63.6716	670
257.85	63.3866	667
260.069	63.5766	669
261.124	63.4816	668
261.782	63.2915	666
263.617	63.3866	667
265.059	63.3866	667
266.101	63.2915	666
269.148	63.6716	670
274.231	64.5269	679
277.323	64.9071	683
280.024	65.1922	686
279.455	64.717	681
278.04	64.0518	674
277.838	63.6716	670
279.703	63.7667	671
281.992	63.9567	673
283.446	63.9567	673
282.785	63.4816	668
282.101	63.0064	663
283.107	62.9114	662
287.547	63.5766	669
289.857	63.7667	671
290.005	63.4816	668
291.012	63.3866	667
296.4	64.2418	676
296.54	63.9567	673
295.338	63.3866	667
296.335	63.2915	666
297.328	63.1965	665
287.983	60.9157	641
288.917	60.8207	640
293.929	61.5809	648
299.887	62.5313	658
304.515	63.1965	665
307.333	63.4816	668
308.315	63.3866	667
307.899	63.0064	663
306.533	62.4362	657
305.61	61.9611	652
306.548	61.866	651
307.482	61.771	650
307.462	61.4859	647
310.293	61.771	650
315.534	62.5313	658
318.883	62.9114	662
321.766	63.1965	665
323.689	63.2915	666
323.176	62.9114	662
325.098	63.0064	663
328.501	63.3866	667
330.437	63.4816	668
334.366	63.9567	673
335.321	63.8617	672
335.772	63.6716	670
339.737	64.1468	675
344.734	64.812	682
345.193	64.622	680
343.095	63.9567	673
343.526	63.7667	671
345.49	63.8617	672
347.975	64.0518	674
354.098	64.9071	683
353.492	64.5269	679
352.869	64.1468	675
353.278	63.9567	673
355.26	64.0518	674
359.364	64.5269	679
361.363	64.622	680
361.232	64.3369	677
359.481	63.7667	671
357.166	63.1015	664
356.441	62.7213	660
358.41	62.8164	661
363.106	63.3866	667
367.827	63.9567	673
371.477	64.3369	677
371.838	64.1468	675
371.638	63.8617	672
374.757	64.1468	675
379.56	64.717	681
383.83	65.1922	686
382.504	64.717	681
378.902	63.8617	672
380.92	63.9567	673
379.534	63.4816	668
384.4	64.0518	674
385.857	64.0518	674
387.314	64.0518	674
391.079	64.4319	678
394.86	64.812	682
399.821	65.3822	688
403.642	65.7624	692
403.967	65.5723	690
405.458	65.5723	690
400.462	64.5269	679
393.643	63.1965	665
389.733	62.3412	656
389.363	62.0561	653
391.971	62.2462	655
399.393	63.1965	665
405.05	63.8617	672
404.688	63.5766	669
404.92	63.3866	667
405.143	63.1965	665
404.746	62.9114	662
410.472	63.5766	669
415.613	64.1468	675
418.926	64.4319	678
421.011	64.5269	679
419.368	64.0518	674
420.825	64.0518	674
421.029	63.8617	672
-488.97	64.4395	663
-483.124	63.8563	657
-479.504	63.5648	654
-478.091	63.5648	654
-475.948	63.4676	653
-477.443	63.8563	657
-485.442	65.1199	670
-483.994	65.1199	670
-480.385	64.8283	667
-478.943	64.8283	667
-472.49	64.1479	660
-466.067	63.4676	653
-462.521	63.176	650
-460.406	63.0788	649
-459.003	63.0788	649
-459.715	63.3704	652
-462.523	63.9535	658
-464.605	64.4395	663
-464.569	64.6339	665
-462.435	64.5367	664
-463.777	64.9255	668
-462.333	64.9255	668
-458.129	64.5367	664
-440.874	62.3012	641
-438.803	62.204	640
-436.052	62.0097	638
-436.036	62.204	640
-436.011	62.3984	642
-434.623	62.3984	642
-438.634	63.176	650
-438.574	63.3704	652
-437.835	63.4676	653
-436.423	63.4676	653
-429.016	62.5928	644
-428.288	62.69	645
-426.894	62.69	645
-427.478	62.9816	648
-426.735	63.0788	649
-427.954	63.4676	653
-427.195	63.5648	654
-427.084	63.7591	656
-426.314	63.8563	657
-424.894	63.8563	657
-412.516	62.204	640
-411.133	62.204	640
-409.749	62.204	640
-411.556	62.69	645
-412.706	63.0788	649
-414.471	63.5648	654
-414.321	63.7591	656
-412.903	63.7591	656
-410.857	63.6619	655
-405.691	63.0788	649
-400.55	62.4956	643
-396.677	62.1068	639
-397.152	62.3984	642
-395.764	62.3984	642
-400.519	63.3704	652
-400.946	63.6619	655
-396.48	63.176	650
-393.859	62.9816	648
-391.247	62.7872	646
-389.247	62.69	645
-387.853	62.69	645
-388.256	62.9816	648
-388.646	63.2732	651
-391.403	63.9535	658
-389.981	63.9535	658
-385.606	63.4676	653
-383.606	63.3704	652
-388.644	64.4395	663
-393.051	65.4114	673
-388.105	64.8283	667
-386.664	64.8283	667
-382.334	64.3423	662
-378.601	63.9535	658
-374.886	63.5648	654
-370.046	62.9816	648
-367.507	62.7872	646
-366.678	62.8844	647
-367.537	63.2732	651
-364.443	62.9816	648
-363.042	62.9816	648
-361.083	62.8844	647
-362.464	63.3704	652
-366.039	64.2451	661
-366.816	64.6339	665
-363.73	64.3423	662
-354.09	62.8844	647
-345.605	61.6209	634
-342.605	61.3293	631
-346.649	62.3012	641
-351.189	63.3704	652
-351.389	63.6619	655
-354.781	64.5367	664
-351.75	64.2451	661
-346.611	63.5648	654
-344.669	63.4676	653
-342.732	63.3704	652
-339.229	62.9816	648
-333.657	62.204	640
-329.678	61.7181	635
-327.788	61.6209	634
-327.447	61.8153	636
-328.123	62.204	640
-328.271	62.4956	643
-330.44	63.176	650
-330.047	63.3704	652
-327.125	63.0788	649
-323.715	62.69	645
-321.821	62.5928	644
-318.936	62.3012	641
-318.046	62.3984	642
-317.645	62.5928	644
-315.27	62.3984	642
-314.371	62.4956	643
-310.061	61.9125	637
-305.292	61.2321	630
-302.483	60.9405	627
-302.088	61.1349	629
-301.684	61.3293	631
-305.08	62.3012	641
-305.115	62.5928	644
-302.78	62.3984	642
-303.27	62.7872	646
-299.537	62.3012	641
-297.686	62.204	640
-296.303	62.204	640
-295.841	62.3984	642
-292.618	62.0097	638
-292.609	62.3012	641
-294.403	62.9816	648
-294.811	63.3704	652
-292.952	63.2732	651
-289.753	62.8844	647
-285.235	62.204	640
-282.077	61.8153	636
-280.702	61.8153	636
-281.963	62.3984	642
-281.012	62.4956	643
-280.057	62.5928	644
-278.664	62.5928	644
-278.133	62.7872	646
-275.452	62.4956	643
-273.209	62.3012	641
-269.279	61.7181	635
-266.641	61.4265	632
-266.114	61.6209	634
-265.996	61.9125	637
-265.45	62.1068	639
-264.069	62.1068	639
-263.921	62.3984	642
-266.622	63.3704	652
-265.213	63.3704	652
-262.994	63.176	650
-254.345	61.4265	632
-248.176	60.2602	620
-246.039	60.0658	618
-246.287	60.4546	622
-245.73	60.6489	624
-246.339	61.1349	629
-245.758	61.3293	631
-244.007	61.2321	630
-243.415	61.4265	632
-243.581	61.8153	636
-240.302	61.3293	631
-237.045	60.8433	626
-233.433	60.2602	620
-232.467	60.3574	621
-231.869	60.5517	623
-233.482	61.3293	631
-235.429	62.204	640
-232.948	61.9125	637
-229.39	61.3293	631
-226.58	60.9405	627
-224.507	60.7461	625
-223.87	60.9405	627
-221.45	60.6489	624
-219.395	60.4546	622
-216.999	60.163	619
-213.222	59.4826	612
-212.245	59.5798	613
-211.952	59.8714	616
-211.647	60.163	619
-213.026	60.9405	627
-214.372	61.7181	635
-214.676	62.204	640
-213.959	62.3984	642
-212.571	62.3984	642
-208.881	61.7181	635
-206.528	61.4265	632
-202.889	60.7461	625
-199.281	60.0658	618
-196.664	59.677	614
-196.291	59.9686	617
-202.225	62.204	640
-200.841	62.204	640
-200.393	62.4956	643
-198.384	62.3012	641
-196.998	62.3012	641
-195.612	62.3012	641
-190.591	61.1349	629
-189.231	61.1349	629
-192.352	62.5928	644
-191.849	62.8844	647
-192.216	63.4676	653
-191.974	63.8563	657
-190.843	63.9535	658
-188.27	63.5648	654
-185.999	63.2732	651
-182.323	62.4956	643
-178.4	61.6209	634
-175.913	61.2321	630
-175.937	61.7181	635
-176.763	62.4956	643
-176.191	62.7872	646
-175.336	62.9816	648
-175.009	63.3704	652
-173.866	63.4676	653
-172.718	63.5648	654
-171.042	63.4676	653
-170.15	63.6619	655
-169.25	63.8563	657
-167.319	63.6619	655
-165.649	63.5648	654
-163.733	63.3704	652
-159.834	62.3984	642
-157.212	61.9125	637
-155.346	61.7181	635
-153.246	61.4265	632
-151.88	61.4265	632
-149.085	60.8433	626
-147.023	60.5517	623
-144.741	60.163	619
-143.635	60.2602	620
-141.377	59.8714	616
-142.091	60.7461	625
-142.767	61.6209	634
-143.403	62.4956	643
-143.78	63.2732	651
-142.373	63.2732	651
-140.966	63.2732	651
-138.487	62.7872	646
-135.18	61.9125	637
-132.123	61.1349	629
-128.892	60.2602	620
-128.375	60.6489	624
-128.858	61.5237	633
-130.511	62.9816	648
-128.711	62.7872	646
-125.935	62.1068	639
-123.384	61.5237	633
-122.787	61.9125	637
-121.791	62.1068	639
-119.845	61.8153	636
-117.725	61.4265	632
-115.438	60.9405	627
-113.355	60.5517	623
-112.008	60.5517	623
-111.017	60.7461	625
-109.841	60.8433	626
-107.621	60.3574	621
-105.765	60.0658	618
-104.429	60.0658	618
-103.761	60.4546	622
-103.569	61.1349	629
-102.697	61.4265	632
-101.972	61.8153	636
-100.597	61.8153	636
-98.2859	61.2321	630
-96.3086	60.8433	626
-94.5003	60.5517	623
-93.3031	60.6489	624
-92.3963	60.9405	627
-92.0573	61.6209	634
-91.8311	62.3984	642
-90.8659	62.69	645
-88.778	62.204	640
-86.7117	61.7181	635
-84.1295	60.8433	626
-81.3217	59.7742	615
-79.6021	59.4826	612
-81.6047	62.0097	638
-80.477	62.204	640
-78.5992	61.8153	636
-77.2243	61.8153	636
-77.1613	62.8844	647
-76.2311	63.2732	651
-74.9388	63.3704	652
-73.3038	63.176	650
-71.4562	62.7872	646
-69.9513	62.69	645
-68.3444	62.4956	643
-66.9544	62.4956	643
-65.4625	62.3984	642
-64.6735	62.9816	648
-63.5656	63.2732	651
-62.0629	63.176	650
-60.4711	62.9816	648
-58.7057	62.5928	644
-57.2245	62.4956	643
-55.6609	62.3012	641
-54.4446	62.4956	643
-52.9721	62.3984	642
-51.5843	62.3984	642
-50.3528	62.5928	644
-48.7326	62.3012	641
-47.2731	62.204	640
-46.033	62.3984	642
-44.7842	62.5928	644
-43.729	63.0788	649
-42.326	63.0788	649
-40.7339	62.7872	646
-39.2157	62.5928	644
-37.8235	62.5928	644
-36.5445	62.7872	646
-35.0936	62.69	645
-33.5426	62.3984	642
-32.1548	62.3984	642
-30.9586	62.7872	646
-29.7452	63.176	650
-28.2965	63.0788	649
-26.7278	62.69	645
-25.0586	62.0097	638
-23.6051	61.8153	636
-22.3701	62.204	640
-21.2162	62.8844	647
-19.94	63.2732	651
-18.6466	63.6619	655
-17.2044	63.5648	654
-15.6699	63.0788	649
-14.289	63.176	650
-12.9433	63.4676	653
-11.673	64.2451	661
-10.3526	64.9255	668
-8.8552	64.5367	664
-7.40865	64.4395	663
-5.93938	64.0507	659
-4.47371	63.4676	653
-3.08086	63.8563	657
-1.67578	64.4395	663
-0.24476	65.0227	669
1.19065	64.4395	663
2.59221	63.6619	655
3.95918	62.8844	647
5.34953	62.7872	646
6.78777	63.176	650
8.28111	63.8563	657
9.74566	64.1479	660
11.2062	64.3423	662
12.58	64.0507	659
13.8346	63.2732	651
14.9843	62.204	640
16.3167	62.0097	638
17.89	62.69	645
19.4338	63.176	650
20.9672	63.5648	654
22.4494	63.7591	656
23.6855	63.2732	651
25.0157	63.0788	649
26.8664	64.1479	660
28.4218	64.4395	663
29.6298	63.9535	658
30.7219	63.2732	651
32.0305	63.0788	649
33.2274	62.69	645
34.6217	62.69	645
36.2393	63.0788	649
37.6423	63.0788	649
38.9249	62.8844	647
40.2612	62.7872	646
41.9156	63.176	650
43.1875	62.9816	648
45.2075	63.8563	657
46.4149	63.5648	654
47.7555	63.4676	653
48.7153	62.8844	647
50.0365	62.7872	646
51.5922	62.9816	648
52.993	62.9816	648
54.4777	63.0788	649
56.139	63.3704	652
57.5484	63.3704	652
58.9579	63.3704	652
61.0154	64.0507	659
61.5872	63.176	650
62.4109	62.5928	644
63.6049	62.3984	642
65.7013	63.0788	649
67.6213	63.5648	654
69.3517	63.8563	657
69.9102	63.0788	649
70.8736	62.69	645
72.6041	62.9816	648
74.5759	63.4676	653
75.9875	63.4676	653
77.8732	63.8563	657
79.5348	64.0507	659
80.0994	63.3704	652
81.2588	63.176	650
82.5368	63.0788	649
83.9397	63.0788	649
84.6852	62.5928	644
85.1417	61.9125	637
86.5187	61.9125	637
88.0337	62.0097	638
89.553	62.1068	639
91.6459	62.5928	644
93.327	62.7872	646
95.6033	63.3704	652
96.7151	63.176	650
96.6107	62.204	640
96.9224	61.5237	633
98.446	61.6209	634
100.289	61.9125	637
103.262	62.8844	647
105.631	63.4676	653
106.715	63.2732	651
106.627	62.3984	642
108.015	62.3984	642
109.573	62.4956	643
111.654	62.8844	647
113.576	63.176	650
115.512	63.4676	653
115.85	62.8844	647
116.523	62.4956	643
117.363	62.204	640
118.561	62.1068	639
121.444	62.8844	647
124.931	63.9535	658
126.162	63.8563	657
126.611	63.3704	652
125.86	62.3012	641
127.445	62.3984	642
129.434	62.69	645
131.64	63.0788	649
134.068	63.5648	654
137.761	64.6339	665
140.245	65.1199	670
141.693	65.1199	670
142.928	65.0227	669
143.295	64.5367	664
144.294	64.3423	662
145.725	64.3423	662
147.379	64.4395	663
149.261	64.6339	665
150.019	64.3423	662
149.162	63.3704	652
149.186	62.7872	646
151.048	62.9816	648
151.743	62.69	645
154.325	63.176	650
158.365	64.2451	661
159.553	64.1479	660
159.028	63.3704	652
159.453	62.9816	648
162.84	63.7591	656
166.011	64.4395	663
168.959	65.0227	669
170.405	65.0227	669
170.31	64.4395	663
170.966	64.1479	660
173.96	64.7311	666
176.453	65.1199	670
177.371	64.9255	668
177.744	64.5367	664
180.529	65.0227	669
183.607	65.6058	675
183.147	64.9255	668
182.657	64.2451	661
181.579	63.3704	652
180.463	62.4956	643
181.287	62.3012	641
182.388	62.204	640
186.93	63.2732	651
188.915	63.4676	653
184.498	61.5237	633
186.16	61.6209	634
189.305	62.204	640
191.582	62.4956	643
193.272	62.5928	644
194.967	62.69	645
195.752	62.4956	643
196.836	62.3984	642
199.459	62.7872	646
203.342	63.5648	654
205.695	63.8563	657
209.007	64.4395	663
209.488	64.1479	660
209.637	63.7591	656
210.411	63.5648	654
211.825	63.5648	654
214.869	64.0507	659
217.935	64.5367	664
218.379	64.2451	661
219.475	64.1479	660
222.241	64.5367	664
219.297	63.2732	651
219.687	62.9816	648
221.77	63.176	650
225.236	63.7591	656
228.727	64.3423	662
230.158	64.3423	662
234.387	65.1199	670
236.892	65.4114	673
235.867	64.7311	666
233.031	63.5648	654
233.011	63.176	650
233.695	62.9816	648
235.096	62.9816	648
236.862	63.0788	649
239.733	63.4676	653
247.423	65.1199	670
248.499	65.0227	669
247.33	64.3423	662
246.131	63.6619	655
247.169	63.5648	654
249.723	63.8563	657
251.143	63.8563	657
253.332	64.0507	659
252.824	63.5648	654
253.072	63.2732	651
253.306	62.9816	648
255.1	63.0788	649
258.084	63.4676	653
259.893	63.5648	654
261.307	63.5648	654
261.917	63.3704	652
263.73	63.4676	653
268.796	64.3423	662
273.901	65.217	671
277.814	65.8002	677
277.215	65.3142	672
276.179	64.7311	666
277.202	64.6339	665
278.221	64.5367	664
277.971	64.1479	660
275.165	63.176	650
275.719	62.9816	648
278.403	63.2732	651
282.389	63.8563	657
286.401	64.4395	663
287.834	64.4395	663
288.831	64.3423	662
288.947	64.0507	659
286.846	63.2732	651
285.154	62.5928	644
284.766	62.204	640
282.126	61.3293	631
279.896	60.5517	623
282.145	60.7461	625
286.672	61.4265	632
293.963	62.69	645
299.02	63.4676	653
301.352	63.6619	655
302.306	63.5648	654
297.218	62.204	640
298.601	62.204	640
299.985	62.204	640
302.781	62.4956	643
302.279	62.1068	639
303.185	62.0097	638
305.996	62.3012	641
310.259	62.8844	647
314.548	63.4676	653
316.927	63.6619	655
316.399	63.2732	651
317.318	63.176	650
316.272	62.69	645
319.143	62.9816	648
322.523	63.3704	652
325.423	63.6619	655
326.839	63.6619	655
325.248	63.0788	649
325.644	62.8844	647
329.57	63.3704	652
327.426	62.69	645
327.801	62.4956	643
326.119	61.9125	637
325.439	61.5237	633
327.324	61.6209	634
330.768	62.0097	638
340.477	63.5648	654
344.505	64.0507	659
345.929	64.0507	659
346.3	63.8563	657
348.779	64.0507	659
351.797	64.3423	662
352.161	64.1479	660
349.302	63.3704	652
348.022	62.8844	647
347.26	62.4956	643
350.277	62.7872	646
355.484	63.4676	653
359.629	63.9535	658
363.246	64.3423	662
364.126	64.2451	661
363.896	63.9535	658
362.542	63.4676	653
368.97	64.3423	662
369.842	64.2451	661
370.147	64.0507	659
370.444	63.8563	657
369.6	63.4676	653
370.444	63.3704	652
369.572	62.9816	648
370.4	62.8844	647
372.948	63.0788	649
367.429	61.9125	637
369.964	62.1068	639
368.44	61.6209	634
370.977	61.8153	636
377.621	62.69	645
379.015	62.69	645
386.897	63.7591	656
381.804	62.69	645
377.851	61.8153	636
379.226	61.8153	636
381.798	62.0097	638
387.381	62.69	645
395.406	63.7591	656
399.848	64.2451	661
401.277	64.2451	661
400.878	63.9535	658
399.244	63.4676	653
401.269	63.5648	654
401.451	63.3704	652
401.625	63.176	650
404.89	63.4676	653
403.191	62.9816	648
404.592	62.9816	648
403.486	62.5928	644
-477.907	64.3822	648
-479.448	64.7797	652
-478.038	64.7797	652
-476.629	64.7797	652
-476.677	64.9784	654
-480.35	65.6739	661
-478.197	65.5745	660
-476.77	65.5745	660
-471.022	64.9784	654
-469.608	64.9784	654
-466.763	64.7797	652
-459.643	63.9848	644
-456.116	63.6868	641
-451.893	63.2893	637
-450.516	63.2893	637
-452.665	63.7861	642
-454.088	64.1835	646
-449.889	63.7861	642
-442.214	62.8919	633
-441.542	62.9913	634
-441.56	63.19	636
-440.185	63.19	636
-434.67	62.5939	630
-434.684	62.7926	632
-431.261	62.4945	629
-429.218	62.3951	628
-428.542	62.4945	629
-431.257	63.0906	635
-429.884	63.0906	635
-431.885	63.5874	640
-429.829	63.4881	639
-424.425	62.8919	633
-418.378	62.1964	626
-415.026	61.8984	623
-411.688	61.6003	620
-414.98	62.2958	627
-413.625	62.2958	627
-417.53	63.0906	635
-418.123	63.3887	638
-416.744	63.3887	638
-415.365	63.3887	638
-412.688	63.19	636
-407.433	62.5939	630
-406.715	62.6932	631
-409.848	63.3887	638
-408.469	63.3887	638
-410.28	63.8855	643
-411.434	64.2829	647
-409.401	64.1835	646
-407.373	64.0842	645
-404.091	63.7861	642
-402.076	63.6868	641
-396.939	63.0906	635
-391.829	62.4945	629
-394.194	63.0906	635
-397.77	63.8855	643
