-246.425	70.1836	445
-244.36	69.8682	443
-243.952	70.0259	444
-244.087	70.3414	446
-243.123	70.3414	446
-241.073	70.0259	444
-237.409	69.2373	439
-234.305	68.6065	435
-232.828	68.4488	434
-231.89	68.4488	434
-231.484	68.6065	435
-230.014	68.4488	434
-230.131	68.7642	436
-230.24	69.0796	438
-229.293	69.0796	438
-226.261	68.4488	434
-225.323	68.4488	434
-229.038	69.8682	443
-229.625	70.3414	446
-229.173	70.4991	447
-227.697	70.3414	446
-226.733	70.3414	446
-223.237	69.5528	441
-220.268	68.9219	437
-219.323	68.9219	437
-217.879	68.7642	436
-216.936	68.7642	436
-217.48	69.2373	439
-218.504	69.8682	443
-217.055	69.7105	442
-215.122	69.3951	440
-213.197	69.0796	438
-212.25	69.0796	438
-210.821	68.9219	437
-210.357	69.0796	438
-211.322	69.7105	442
-211.319	70.0259	444
-213.675	71.1299	451
-216.002	72.2339	458
-214.073	71.9185	456
-209.349	70.6568	448
-204.659	69.3951	440
-200.467	68.291	433
-200.453	68.6065	435
-199.971	68.7642	436
-199.029	68.7642	436
-197.177	68.4488	434
-196.691	68.6065	435
-195.751	68.6065	435
-195.259	68.7642	436
-194.316	68.7642	436
-192.043	68.291	433
-191.548	68.4488	434
-190.61	68.4488	434
-187.487	67.6602	429
-187.864	68.1333	432
-187.363	68.291	433
-186.427	68.291	433
-185.919	68.4488	434
-184.555	68.291	433
-183.619	68.291	433
-185.214	69.2373	439
-185.944	69.8682	443
-184.151	69.5528	441
-180.706	68.6065	435
-176.872	67.5025	428
-173.892	66.7139	423
-172.977	66.7139	423
-172.877	67.0293	425
-172.362	67.187	426
-172.649	67.6602	429
-172.922	68.1333	432
-172.785	68.4488	434
-171.847	68.4488	434
-171.696	68.7642	436
-171.537	69.0796	438
-169.421	68.6065	435
-166.932	67.9756	431
-165.615	67.8179	430
-165.068	67.9756	431
-164.518	68.1333	432
-164.341	68.4488	434
-164.156	68.7642	436
-163.588	68.9219	437
-163.015	69.0796	438
-162.068	69.0796	438
-162.225	69.5528	441
-161.272	69.5528	441
-158.137	68.6065	435
-156.474	68.291	433
-154.82	67.9756	431
-152.817	67.5025	428
-149.762	66.5562	422
-149.203	66.7139	423
-151.444	68.1333	432
-149.813	67.8179	430
-149.922	68.291	433
-148.986	68.291	433
-147.708	68.1333	432
-147.114	68.291	433
-145.503	67.9756	431
-142.223	66.8716	424
-139.64	66.083	419
-138.403	65.9253	418
-138.486	66.3985	421
-137.903	66.5562	422
-137.316	66.7139	423
-136.079	66.5562	422
-135.487	66.7139	423
-136.163	67.5025	428
-135.87	67.8179	430
-133.999	67.3447	427
-132.764	67.187	426
-132.462	67.5025	428
-131.537	67.5025	428
-129.391	66.8716	424
-127.262	66.2407	420
-127.558	66.8716	424
-126.94	67.0293	425
-125.725	66.8716	424
-124.514	66.7139	423
-123.892	66.8716	424
-123.845	67.3447	427
-124.074	67.9756	431
-123.999	68.4488	434
-122.777	68.291	433
-120.997	67.8179	430
-119.788	67.6602	429
-119.969	68.291	433
-119.583	68.6065	435
-120.006	69.3951	440
-118.785	69.2373	439
-116.762	68.6065	435
-113.425	67.187	426
-112.24	67.0293	425
-112.369	67.6602	429
-111.702	67.8179	430
-112.06	68.6065	435
-111.12	68.6065	435
-109.42	68.1333	432
-109.239	68.6065	435
-108.299	68.6065	435
-106.125	67.8179	430
-103.483	66.7139	423
-102.083	66.3985	421
-101.894	66.8716	424
-101.93	67.5025	428
-101.241	67.6602	429
-100.781	67.9756	431
-99.3862	67.6602	429
-97.0817	66.7139	423
-95.2579	66.083	419
-93.6766	65.6099	416
-93.8925	66.3985	421
-92.9824	66.3985	421
-92.5097	66.7139	423
-91.5953	66.7139	423
-90.6809	66.7139	423
-88.7054	65.9253	418
-88.2219	66.2407	420
-87.7298	66.5562	422
-86.6118	66.3985	421
-85.7017	66.3985	421
-85.3959	66.8716	424
-84.6785	67.0293	425
-84.154	67.3447	427
-83.036	67.187	426
-81.7296	66.8716	424
-80.0506	66.2407	420
-79.1427	66.2407	420
-78.4211	66.3985	421
-77.1428	66.083	419
-76.6009	66.3985	421
-75.511	66.2407	420
-74.7807	66.3985	421
-74.2216	66.7139	423
-73.3072	66.7139	423
-69.6545	64.1904	407
-70.6335	65.9253	418
-69.7299	65.9253	418
-69.9789	67.0293	425
-70.1976	68.1333	432
-68.9431	67.8179	430
-68.0135	67.8179	430
-66.772	67.5025	428
-65.6929	67.3447	427
-64.3148	66.8716	424
-62.5011	65.9253	418
-61.5975	65.9253	418
-60.8391	66.083	419
-60.0764	66.2407	420
-59.4502	66.5562	422
-58.9541	67.0293	425
-58.3085	67.3447	427
-57.5199	67.5025	428
-56.3302	67.187	426
-55.2792	67.0293	425
-53.8489	66.3985	421
-52.6873	66.083	419
-51.9051	66.2407	420
-50.9972	66.2407	420
-49.97	66.083	419
-49.4156	66.5562	422
-49.078	67.3447	427
-48.0422	67.187	426
-46.7894	66.7139	423
-45.7666	66.5562	422
-44.6418	66.2407	420
-43.7338	66.2407	420
-42.9279	66.3985	421
-42.1176	66.5562	422
-41.303	66.7139	423
-39.9112	65.9253	418
-39.1009	66.083	419
-38.104	65.9253	418
-37.2004	65.9253	418
-36.3836	66.083	419
-35.4779	66.083	419
-34.6546	66.2407	420
-33.8271	66.3985	421
-33.0734	66.7139	423
-31.9309	66.2407	420
-30.8014	65.7676	417
-29.8999	65.7676	417
-29.1376	66.083	419
-28.0971	65.7676	417
-27.3913	66.2407	420
-26.5464	66.3985	421
-25.6972	66.5562	422
-24.4913	65.7676	417
-23.2505	64.8213	411
-22.2532	64.5059	409
-21.578	65.1367	413
-20.6351	64.979	412
-19.7924	65.1367	413
-18.8997	65.1367	413
-18.1813	65.7676	417
-17.2798	65.7676	417
-16.0642	64.5059	409
-15.1058	64.1904	407
-14.3309	64.6636	410
-13.6413	65.6099	416
-12.8339	66.083	419
-11.9282	66.083	419
-10.9961	65.9253	418
-10.1408	66.2407	420
-9.21088	66.083	419
-8.30512	66.083	419
-7.41702	66.2407	420
-6.5246	66.3985	421
-5.61452	66.3985	421
-4.69326	66.2407	420
-3.82139	66.8716	424
-2.93223	67.5025	428
-2.01639	67.8179	430
-1.06664	66.5562	422
-0.153295	66.083	419
0.757851	66.5562	422
1.67801	66.8716	424
2.60682	67.187	426
3.47802	66.2407	420
4.34417	65.6099	416
5.25605	65.7676	417
6.11318	65.2944	414
7.00813	65.2944	414
7.84582	64.8213	411
8.75553	64.979	412
9.59933	64.6636	410
10.4089	64.1904	407
11.2887	64.1904	407
12.2283	64.5059	409
13.1445	64.6636	410
14.0651	64.8213	411
14.9899	64.979	412
16.266	66.5562	422
17.2597	66.8716	424
18.1334	66.7139	423
19.1378	67.0293	425
19.8206	66.2407	420
20.5804	65.7676	417
21.3788	65.4522	415
22.1686	65.1367	413
23.1172	65.2944	414
24.3602	66.2407	420
25.4486	66.7139	423
25.9891	65.7676	417
26.8905	65.7676	417
27.9252	66.083	419
28.9686	66.3985	421
30.0916	66.8716	424
31.1544	67.187	426
32.1506	67.3447	427
33.2286	67.6602	429
34.2356	67.8179	430
34.5109	66.5562	422
34.7516	65.2944	414
35.5604	65.1367	413
36.5415	65.2944	414
37.6173	65.6099	416
39.0721	66.5562	422
40.2686	67.0293	425
41.1873	67.0293	425
42.3042	67.3447	427
43.5309	67.8179	430
44.4605	67.8179	430
44.9678	67.187	426
45.1346	66.083	419
45.6009	65.4522	415
46.7221	65.7676	417
47.3951	65.4522	415
47.7104	64.6636	410
48.2411	64.1904	407
49.6037	64.8213	411
50.8607	65.2944	414
52.6307	66.3985	421
53.668	66.5562	422
55.0976	67.187	426
56.413	67.6602	429
57.2067	67.5025	428
58.4035	67.8179	430
59.4711	67.9756	431
60.1225	67.6602	429
60.0537	66.5562	422
61.3993	67.0293	425
62.1714	66.8716	424
62.7904	66.5562	422
63.5517	66.3985	421
64.3087	66.2407	420
65.3719	66.3985	421
66.4394	66.5562	422
67.192	66.3985	421
68.2639	66.5562	422
68.5204	65.9253	418
69.0919	65.6099	416
70.3276	65.9253	418
71.9129	66.5562	422
72.9977	66.7139	423
73.9121	66.7139	423
74.6496	66.5562	422
75.9199	66.8716	424
76.8365	66.8716	424
77.2029	66.3985	421
77.3709	65.7676	417
78.46	65.9253	418
79.7433	66.2407	420
80.8433	66.3985	421
81.9475	66.5562	422
83.2525	66.8716	424
84.1691	66.8716	424
85.0856	66.8716	424
85.5965	66.5562	422
85.6888	65.9253	418
86.5924	65.9253	418
86.868	65.4522	415
85.8618	64.0327	406
87.3804	64.5059	409
88.6961	64.8213	411
89.3666	64.6636	410
91.1334	65.2944	414
93.1398	66.083	419
92.25	64.8213	411
92.9118	64.6636	410
94.0269	64.8213	411
95.1463	64.979	412
96.7362	65.4522	415
98.3391	65.9253	418
99.7176	66.2407	420
100.865	66.3985	421
101.775	66.3985	421
102.441	66.2407	420
102.857	65.9253	418
103.016	65.4522	415
104.664	65.9253	418
106.326	66.3985	421
107.745	66.7139	423
107.632	66.083	419
108.538	66.083	419
109.966	66.3985	421
110.349	66.083	419
110.989	65.9253	418
111.625	65.7676	417
113.336	66.2407	420
114.516	66.3985	421
115.975	66.7139	423
116.889	66.7139	423
116.69	66.083	419
115.911	65.1367	413
115.956	64.6636	410
115.987	64.1904	407
116.58	64.0327	406
117.457	64.0327	406
118.627	64.1904	407
122.443	65.7676	417
122.161	65.1367	413
122.458	64.8213	411
122.746	64.5059	409
123.932	64.6636	410
125.123	64.8213	411
126.625	65.1367	413
128.135	65.4522	415
128.721	65.2944	414
128.99	64.979	412
128.935	64.5059	409
129.502	64.3481	408
131.023	64.6636	410
133.196	65.2944	414
135.063	65.7676	417
133.682	64.6636	410
132.271	63.5596	403
132.151	63.0864	400
133.68	63.4018	402
135.888	64.0327	406
139.124	65.1367	413
143.068	66.5562	422
143.98	66.5562	422
143.862	66.083	419
143.386	65.4522	415
143.588	65.1367	413
143.431	64.6636	410
143.613	64.3481	408
143.433	63.875	405
142.883	63.2441	401
144.108	63.4018	402
145.699	63.7173	404
148.023	64.3481	408
149.635	64.6636	410
151.99	65.2944	414
153.624	65.6099	416
154.894	65.7676	417
155.796	65.7676	417
156.697	65.7676	417
157.599	65.7676	417
158.5	65.7676	417
160.166	66.083	419
162.225	66.5562	422
163.91	66.8716	424
163.272	66.2407	420
163.398	65.9253	418
164.302	65.9253	418
166.786	66.5562	422
169.685	67.3447	427
172.207	67.9756	431
171.933	67.5025	428
170.435	66.5562	422
168.911	65.6099	416
171.443	66.2407	420
172.762	66.3985	421
174.497	66.7139	423
174.996	66.5562	422
174.658	66.083	419
174.307	65.6099	416
175.627	65.7676	417
178.222	66.3985	421
182.536	67.6602	429
183.463	67.6602	429
179.663	65.9253	418
180.134	65.7676	417
177.563	64.5059	409
178.447	64.5059	409
179.331	64.5059	409
180.215	64.5059	409
181.099	64.5059	409
181.094	64.1904	407
181.526	64.0327	406
182.853	64.1904	407
183.733	64.1904	407
184.613	64.1904	407
185.037	64.0327	406
185.915	64.0327	406
189.093	64.8213	411
188.594	64.3481	408
186.69	63.4018	402
187.559	63.4018	402
187.959	63.2441	401
191.651	64.1904	407
194.896	64.979	412
195.787	64.979	412
195.723	64.6636	410
195.65	64.3481	408
200.386	65.6099	416
201.769	65.7676	417
201.698	65.4522	415
200.154	64.6636	410
201.531	64.8213	411
203.405	65.1367	413
203.308	64.8213	411
203.203	64.5059	409
202.091	63.875	405
201.463	63.4018	402
202.332	63.4018	402
204.212	63.7173	404
206.608	64.1904	407
204.429	63.2441	401
205.296	63.2441	401
211.818	64.979	412
211.676	64.6636	410
213.081	64.8213	411
215.011	65.1367	413
215.904	65.1367	413
215.222	64.6636	410
214.527	64.1904	407
215.406	64.1904	407
219.475	65.1367	413
221.435	65.4522	415
222.868	65.6099	416
223.229	65.4522	415
223.046	65.1367	413
219.601	63.875	405
222.11	64.3481	408
227.364	65.6099	416
229.361	65.9253	418
229.163	65.6099	416
228.403	65.1367	413
227.075	64.5059	409
225.172	63.7173	404
227.724	64.1904	407
230.289	64.6636	410
231.739	64.8213	411
232.627	64.8213	411
233.516	64.8213	411
232.693	64.3481	408
233.003	64.1904	407
233.883	64.1904	407
238.223	65.1367	413
239.695	65.2944	414
241.752	65.6099	416
243.818	65.9253	418
246.478	66.3985	421
247.388	66.3985	421
246.529	65.9253	418
246.841	65.7676	417
247.742	65.7676	417
242.681	64.1904	407
241.167	63.5596	403
246.242	64.6636	410
247.129	64.6636	410
247.41	64.5059	409
248.901	64.6636	410
249.787	64.6636	410
250.674	64.6636	410
251.56	64.6636	410
253.678	64.979	412
255.804	65.2944	414
254.839	64.8213	411
255.105	64.6636	410
255.367	64.5059	409
254.372	64.0327	406
-320.08	69.3869	434
-319.877	69.5467	435
-318.936	69.5467	435
-316.534	69.227	433
-314.869	69.0671	432
-313.209	68.9072	431
-310.828	68.5875	429
-309.9	68.5875	429
-306.812	68.1078	426
-303.019	67.4683	422
-300.675	67.1486	420
-302.622	67.7881	424
-305.264	68.5875	429
-304.336	68.5875	429
-304.116	68.7473	430
-296.136	67.1486	420
-298.742	67.948	425
-300.627	68.5875	429
-301.795	69.0671	432
-300.861	69.0671	432
-300.622	69.227	433
-301.07	69.5467	435
-300.13	69.5467	435
-299.877	69.7066	436
-299.62	69.8665	437
-298.675	69.8665	437
-299.775	70.3461	440
-298.144	70.1862	439
-297.872	70.3461	440
-298.946	70.8258	443
-297.315	70.6659	442
-299.042	71.3054	446
-293.399	70.1862	439
-292.45	70.1862	439
-292.165	70.3461	440
-291.876	70.506	441
-288.944	70.0264	438
-283.394	68.9072	431
-282.463	68.9072	431
-281.531	68.9072	431
-279.297	68.5875	429
-278.37	68.5875	429
-274.209	67.7881	424
-273.937	67.948	425
-276.23	68.7473	430
-280.422	70.0264	438
-282.028	70.6659	442
-282.344	70.9856	444
-279.483	70.506	441
-276.635	70.0264	438
-273.17	69.3869	434
-271.605	69.227	433
-271.919	69.5467	435
-273.471	70.1862	439
-273.763	70.506	441
-272.191	70.3461	440
-270.007	70.0264	438
-269.06	70.0264	438
-268.113	70.0264	438
-268.997	70.506	441
-269.259	70.8258	443
-270.724	71.4653	447
-269.757	71.4653	447
-269.393	71.6251	448
-266.627	71.1455	445
-263.277	70.506	441
-259.349	69.7066	436
-256.629	69.227	433
-256.874	69.5467	435
-253.58	68.9072	431
-251.476	68.5875	429
-252.3	69.0671	432
-252.53	69.3869	434
-253.911	70.0264	438
-252.964	70.0264	438
-252.593	70.1862	439
-251.644	70.1862	439
-251.837	70.506	441
-250.884	70.506	441
-249.363	70.3461	440
-247.283	70.0264	438
-246.336	70.0264	438
-245.39	70.0264	438
-245.001	70.1862	439
-244.608	70.3461	440
-243.103	70.1862	439
-238.844	69.227	433
-236.26	68.7473	430
-234.783	68.5875	429
-232.765	68.2677	427
-230.213	67.7881	424
-228.215	67.4683	422
-228.919	67.948	425
-229.073	68.2677	427
-228.684	68.4276	428
-228.824	68.7473	430
-227.894	68.7473	430
-226.964	68.7473	430
-227.086	69.0671	432
-226.152	69.0671	432
-225.219	69.0671	432
-223.765	68.9072	431
-222.317	68.7473	430
-223.447	69.3869	434
-224.047	69.8665	437
-222.591	69.7066	436
-219.107	68.9072	431
-217.163	68.5875	429
-214.723	68.1078	426
-216.312	68.9072	431
-214.381	68.5875	429
-213.951	68.7473	430
-212.526	68.5875	429
-213.078	69.0671	432
-212.636	69.227	433
-210.233	68.7473	430
-209.79	68.9072	431
-208.858	68.9072	431
-207.927	68.9072	431
-207.475	69.0671	432
-205.585	68.7473	430
-205.132	68.9072	431
-205.147	69.227	433
-204.683	69.3869	434
-203.275	69.227	433
-199.068	68.1078	426
-198.147	68.1078	426
-196.763	67.948	425
-198.149	68.7473	430
-198.137	69.0671	432
-197.659	69.227	433
-196.269	69.0671	432
-195.335	69.0671	432
-194.851	69.227	433
-193.915	69.227	433
-192.088	68.9072	431
-189.825	68.4276	428
-188.459	68.2677	427
-187.097	68.1078	426
-187.924	68.7473	430
-187.864	69.0671	432
-187.363	69.227	433
-185.566	68.9072	431
-183.349	68.4276	428
-181.998	68.2677	427
-180.226	67.948	425
-181.839	68.9072	431
-182.167	69.3869	434
-180.811	69.227	433
-178.213	68.5875	429
-175.219	67.7881	424
-173.07	67.3084	421
-172.16	67.3084	421
-172.063	67.6282	423
-171.149	67.6282	423
-170.234	67.6282	423
-170.921	68.2677	427
-170.396	68.4276	428
-169.471	68.4276	428
-169.333	68.7473	430
-168.795	68.9072	431
-167.864	68.9072	431
-165.383	68.2677	427
-164.074	68.1078	426
-163.153	68.1078	426
-162.994	68.4276	428
-162.069	68.4276	428
-162.65	69.0671	432
-162.09	69.227	433
-161.526	69.3869	434
-159.478	68.9072	431
-158.547	68.9072	431
-155.055	67.7881	424
-151.957	66.8288	418
-151.415	66.9887	419
-152.664	67.948	425
-150.675	67.4683	422
-149.407	67.3084	421
-148.145	67.1486	420
-147.938	67.4683	422
-148.768	68.2677	427
-148.537	68.5875	429
-145.889	67.7881	424
-142.921	66.8288	418
-140.659	66.1893	414
-140.101	66.3492	415
-140.21	66.8288	418
-138.974	66.6689	417
-138.403	66.8288	418
-138.486	67.3084	421
-137.576	67.3084	421
-136.666	67.3084	421
-134.789	66.8288	418
-133.885	66.8288	418
-133.3	66.9887	419
-130.814	66.1893	414
-129.605	66.0294	413
-128.401	65.8696	412
-129.367	66.8288	418
-129.386	67.3084	421
-128.17	67.1486	420
-126.656	66.8288	418
-126.956	67.4683	422
-125.745	67.3084	421
-124.242	66.9887	419
-122.453	66.5091	416
-121.554	66.5091	416
-121.525	66.9887	419
-120.907	67.1486	420
-120.285	67.3084	421
-120.793	68.1078	426
-119.027	67.6282	423
-118.951	68.1078	426
-118.03	68.1078	426
-117.934	68.5875	429
-115.643	67.7881	424
-113.644	67.1486	420
-112.736	67.1486	420
-111.828	67.1486	420
-112.769	68.2677	427
-112.107	68.4276	428
-111.702	68.7473	430
-111.03	68.9072	431
-110.098	68.9072	431
-108.407	68.4276	428
-105.975	67.4683	422
-104.564	67.1486	420
-103.163	66.8288	418
-101.77	66.5091	416
-100.386	66.1893	414
-99.7312	66.3492	415
-100.263	67.3084	421
-99.825	67.6282	423
-98.9105	67.6282	423
-97.5328	67.3084	421
-95.4752	66.5091	416
-93.4392	65.7097	411
-92.3255	65.5498	410
-92.1083	66.0294	413
-91.8781	66.5091	416
-90.9788	66.5091	416
-89.6465	66.1893	414
-88.5371	66.0294	413
-87.8566	66.1893	414
-87.3817	66.5091	416
-86.8982	66.8288	418
-85.9946	66.8288	418
-85.091	66.8288	418
-84.3888	66.9887	419
-83.8816	67.3084	421
-83.3657	67.6282	423
-82.4512	67.6282	423
-80.7658	66.9887	419
-78.9071	66.1893	414
-78.5774	66.6689	417
-77.676	66.6689	417
-76.9587	66.8288	418
-75.5092	66.3492	415
-74.2525	66.0294	413
-72.8269	65.5498	410
-71.5896	65.23	408
-70.0144	64.5905	404
-68.7988	64.2708	402
-69.1127	65.3899	409
-69.2294	66.3492	415
-69.4849	67.4683	422
-69.2226	68.1078	426
-68.3018	68.1078	426
-67.0645	67.7881	424
-65.6799	67.3084	421
-64.7698	67.3084	421
-63.253	66.6689	417
-62.0525	66.3492	415
-60.4186	65.5498	410
-59.6775	65.7097	411
-59.0751	66.0294	413
-58.605	66.5091	416
-57.9831	66.8288	418
-57.2161	66.9887	419
-56.3103	66.9887	419
-55.5368	67.1486	420
-54.2387	66.6689	417
-52.6977	65.8696	412
-51.9328	66.0294	413
-51.5344	66.6689	417
-50.6329	66.6689	417
-49.6122	66.5091	416
-48.9472	66.8288	418
-48.1585	66.9887	419
-48.1549	68.2677	427
-46.7894	67.6282	423
-45.6581	67.3084	421
-44.2166	66.5091	416
-43.4214	66.6689	417
-42.52	66.6689	417
-41.7184	66.8288	418
-40.3266	66.0294	413
-38.8609	65.0702	407
-37.9811	65.0702	407
-37.1013	65.0702	407
-36.3104	65.23	408
-35.6021	65.5498	410
-35.2239	66.5091	416
-34.2421	66.3492	415
-33.5057	66.6689	417
-32.6824	66.8288	418
-31.4747	66.1893	414
-30.2843	65.5498	410
-29.398	65.5498	410
-28.7203	66.0294	413
-27.9623	66.3492	415
-26.8695	65.8696	412
-25.7267	65.23	408
-24.7229	64.9103	406
-23.8453	64.9103	406
-22.911	64.7504	405
-21.9267	64.4306	403
-21.0555	64.4306	403
-20.2845	64.7504	405
-19.6007	65.3899	409
-18.7624	65.5498	410
-18.0069	66.0294	413
-16.9898	65.5498	410
-15.7892	64.2708	402
-14.846	63.951	400
-14.0163	64.1109	401
-13.2806	64.7504	405
-12.4357	64.9103	406
-11.6719	65.5498	410
-10.8383	65.8696	412
-9.97177	66.0294	413
-9.10097	66.1893	414
-8.14655	65.7097	411
-7.36404	66.6689	417
-6.47811	66.8288	418
-5.57451	66.8288	418
-4.67091	66.8288	418
-3.79435	67.3084	421
-2.89112	67.4683	422
-1.91323	65.23	408
-1.01608	64.2708	402
-0.147441	64.4306	403
0.732709	65.23	408
1.61865	65.3899	409
2.50891	65.5498	410
3.39521	65.5498	410
4.28151	65.5498	410
5.16782	65.5498	410
5.99506	64.9103	406
6.88964	65.0702	407
7.80764	65.3899	409
8.69178	65.3899	409
9.55251	65.23	408
10.3833	64.9103	406
11.261	64.9103	406
12.1088	64.7504	405
13.0163	64.9103	406
13.9282	65.0702	407
14.8808	65.3899	409
15.842	65.7097	411
16.9747	66.6689	417
18.0476	67.3084	421
18.9127	67.1486	420
19.5846	66.3492	415
20.2843	65.7097	411
21.0182	65.23	408
21.9002	65.23	408
22.9497	65.7097	411
24.1282	66.5091	416
24.847	66.0294	413
25.5528	65.5498	410
26.6325	66.0294	413
27.6586	66.3492	415
28.7622	66.8288	418
29.7367	66.9887	419
30.7888	67.3084	421
31.7741	67.4683	422
32.6864	67.4683	422
33.3598	66.9887	419
33.6931	65.8696	412
34.0801	64.9103	406
35.0438	65.0702	407
36.4532	66.0294	413
37.5269	66.3492	415
38.7017	66.8288	418
39.7001	66.9887	419
40.7028	67.1486	420
41.7097	67.3084	421
43.126	68.1078	426
43.7367	67.6282	423
43.9122	66.5091	416
44.4883	66.0294	413
46.0404	66.9887	419
46.7221	66.6689	417
47.3951	66.3492	415
47.594	65.3899	409
48.1226	64.9103	406
48.8795	64.7504	405
50.0007	65.0702	407
50.5055	64.5905	404
51.506	64.7504	405
53.5455	66.1893	414
54.9665	66.8288	418
55.7364	66.6689	417
56.7737	66.8288	418
58.0912	67.3084	421
58.0203	66.1893	414
58.0614	65.23	408
59.3768	65.7097	411
59.972	65.3899	409
61.1537	65.7097	411
62.0422	65.7097	411
62.7775	65.5498	410
63.8191	65.7097	411
64.7076	65.7097	411
65.1172	65.23	408
66.3227	65.5498	410
66.5533	64.9103	406
67.2649	64.7504	405
68.8134	65.3899	409
70.0384	65.7097	411
71.6171	66.3492	415
72.1647	66.0294	413
73.7651	66.6689	417
74.8456	66.8288	418
75.568	66.6689	417
75.9193	66.1893	414
76.4431	65.8696	412
77.5215	66.0294	413
79.1737	66.6689	417
80.4592	66.9887	419
81.365	66.9887	419
80.6999	65.7097	411
81.5884	65.7097	411
82.6775	65.8696	412
83.5682	65.8696	412
83.6388	65.23	408
83.6921	64.5905	404
83.9375	64.1109	401
85.0158	64.2708	402
86.9531	65.0702	407
87.8329	65.0702	407
88.9307	65.23	408
90.473	65.7097	411
91.1392	65.5498	410
91.1277	64.9103	406
91.7788	64.7504	405
92.883	64.9103	406
94.4535	65.3899	409
95.1045	65.23	408
96.9276	65.8696	412
98.0556	66.0294	413
98.9484	66.0294	413
98.6325	65.23	408
100.246	65.7097	411
101.135	65.7097	411
101.278	65.23	408
101.91	65.0702	407
102.79	65.0702	407
103.67	65.0702	407
105.834	65.8696	412
107.243	66.1893	414
108.66	66.5091	416
109.296	66.3492	415
109.131	65.7097	411
110.287	65.8696	412
111.987	66.3492	415
114.244	67.1486	420
112.959	65.8696	412
113.849	65.8696	412
113.905	65.3899	409
114.789	65.3899	409
115.107	65.0702	407
114.277	64.1109	401
115.431	64.2708	402
116.589	64.4306	403
119.792	65.7097	411
120.681	65.7097	411
121.274	65.5498	410
121.862	65.3899	409
121.846	64.9103	406
122.421	64.7504	405
123.297	64.7504	405
125.092	65.23	408
127.826	66.1893	414
128.41	66.0294	413
127.425	65.0702	407
127.674	64.7504	405
127.915	64.4306	403
128.466	64.2708	402
128.37	63.7911	399
128.585	63.4714	397
131.073	64.2708	402
131.942	64.2708	402
131.159	63.4714	397
131.685	63.3115	396
133.545	63.7911	399
135.418	64.2708	402
137.304	64.7504	405
139.204	65.23	408
141.116	65.7097	411
142.004	65.7097	411
142.545	65.5498	410
142.382	65.0702	407
141.501	64.2708	402
141.662	63.951	400
141.458	63.4714	397
140.524	62.672	392
142.814	63.3115	396
145.121	63.951	400
149.635	65.5498	410
150.154	65.3899	409
152.146	65.8696	412
153.037	65.8696	412
153.928	65.8696	412
154.067	65.5498	410
154.575	65.3899	409
154.699	65.0702	407
154.814	64.7504	405
155.69	64.7504	405
156.565	64.7504	405
156.663	64.4306	403
155.58	63.6313	398
157.227	63.951	400
157.301	63.6313	398
161.738	65.0702	407
162.218	64.9103	406
161.489	64.2708	402
163.165	64.5905	404
165.663	65.23	408
166.545	65.23	408
168.658	65.7097	411
168.721	65.3899	409
167.532	64.5905	404
167.572	64.2708	402
172.631	65.8696	412
170.152	64.5905	404
172.295	65.0702	407
173.601	65.23	408
174.055	65.0702	407
171.926	63.951	400
174.519	64.5905	404
175.392	64.5905	404
175.829	64.4306	403
177.139	64.5905	404
177.571	64.4306	403
175.786	63.4714	397
175.754	63.1516	395
176.608	63.1516	395
178.361	63.4714	397
180.573	63.951	400
180.531	63.6313	398
181.847	63.7911	399
184.083	64.2708	402
184.492	64.1109	401
184.434	63.7911	399
184.368	63.4714	397
184.293	63.1516	395
187.022	63.7911	399
190.71	64.7504	405
192.531	65.0702	407
192.936	64.9103	406
194.291	65.0702	407
194.212	64.7504	405
195.087	64.7504	405
195.963	64.7504	405
194.894	64.1109	401
193.808	63.4714	397
199.57	65.0702	407
202.42	65.7097	411
203.308	65.7097	411
202.706	65.23	408
200.594	64.2708	402
200.962	64.1109	401
201.325	63.951	400
201.685	63.7911	399
201.532	63.4714	397
199.841	62.672	392
200.689	62.672	392
205.135	63.7911	399
208.062	64.4306	403
209.971	64.7504	405
212.408	65.23	408
212.244	64.9103	406
211.547	64.4306	403
213.472	64.7504	405
214.348	64.7504	405
216.286	65.0702	407
218.767	65.5498	410
220.189	65.7097	411
221.077	65.7097	411
216.565	64.1109	401
217.432	64.1109	401
219.932	64.5905	404
221.352	64.7504	405
220.033	64.1109	401
219.798	63.7911	399
221.213	63.951	400
223.744	64.4306	403
225.729	64.7504	405
227.724	65.0702	407
229.727	65.3899	409
231.739	65.7097	411
232.627	65.7097	411
233.516	65.7097	411
232.693	65.23	408
230.14	64.2708	402
228.711	63.6313	398
228.418	63.3115	396
235.642	65.0702	407
237.684	65.3899	409
240.902	66.0294	413
242.38	66.1893	414
242.687	66.0294	413
242.401	65.7097	411
241.513	65.23	408
237.048	63.7911	399
234.333	62.8319	393
235.781	62.9918	394
236.032	62.8319	393
238.69	63.3115	396
239.546	63.3115	396
244.652	64.4306	403
246.741	64.7504	405
247.617	64.7504	405
247.265	64.4306	403
249.368	64.7504	405
250.243	64.7504	405
252.979	65.23	408
251.994	64.7504	405
252.87	64.7504	405
251.239	64.1109	401
-311.967	68.5425	423
-309.582	68.2184	421
-308.672	68.2184	421
-308.493	68.3805	422
-307.581	68.3805	422
-309.575	69.0286	426
-307.93	68.8666	425
-303.399	68.0564	420
-302.491	68.0564	420
-294.403	66.436	410
-295.664	66.9221	413
-298.34	67.7323	418
-300.283	68.3805	422
-299.37	68.3805	422
-297.044	68.0564	420
-295.431	67.8944	419
-295.931	68.2184	421
-296.422	68.5425	423
-299.001	69.3527	428
-298.076	69.3527	428
-297.845	69.5148	429
-296.917	69.5148	429
-294.61	69.1907	427
-294.375	69.3527	428
-296.192	70.0009	432
-293.208	69.5148	429
-292.28	69.5148	429
-289.995	69.1907	427
-289.072	69.1907	427
-290.848	69.8388	431
-285.88	68.8666	425
-284.961	68.8666	425
-286.048	69.3527	428
-285.122	69.3527	428
-286.853	70.0009	432
-286.581	70.1629	433
-283.666	69.6768	430
-280.764	69.1907	427
-279.186	69.0286	426
-276.305	68.5425	423
-274.089	68.2184	421
-273.179	68.2184	421
-271.622	68.0564	420
-271.358	68.2184	421
-272.376	68.7046	424
-274.02	69.3527	428
-275.647	70.0009	432
-278.529	70.9731	438
-276.314	70.649	436
-271.582	69.6768	430
-271.282	69.8388	431
-270.35	69.8388	431
-269.419	69.8388	431
-267.241	69.5148	429
-266.314	69.5148	429
-266.005	69.6768	430
-266.925	70.1629	433
-265.989	70.1629	433
-267.501	70.8111	437
-267.167	70.9731	438
-267.435	71.2972	440
-269.512	72.1074	445
-267.947	71.9453	444
-266.987	71.9453	444
-264.829	71.6213	442
-261.486	70.9731	438
-258.159	70.325	434
-256.629	70.1629	433
-253.331	69.5148	429
-250.638	69.0286	426
-249.717	69.0286	426
-247.628	68.7046	424
-248.457	69.1907	427
-249.273	69.6768	430
-249.499	70.0009	432
-248.565	70.0009	432
-249.351	70.487	435
-248.41	70.487	435
-247.47	70.487	435
-244.83	70.0009	432
-242.202	69.5148	429
-242.399	69.8388	431
-241.468	69.8388	431
-241.652	70.1629	433
-241.272	70.325	434
-236.458	69.1907	427
-233.88	68.7046	424
-232.963	68.7046	424
-232.047	68.7046	424
-229.495	68.2184	421
-228.042	68.0564	420
-226.052	67.7323	418
-226.764	68.2184	421
-226.927	68.5425	423
-227.082	68.8666	425
-226.695	69.0286	426
-225.244	68.8666	425
-224.853	69.0286	426
-225.509	69.5148	429
-224.058	69.3527	428
-222.612	69.1907	427
-221.17	69.0286	426
-219.732	68.8666	425
-219.328	69.0286	426
-220.458	69.6768	430
-219.528	69.6768	430
-217.582	69.3527	428
-216.657	69.3527	428
-214.219	68.8666	425
-213.301	68.8666	425
-211.382	68.5425	423
-209.97	68.3805	422
-208.563	68.2184	421
-209.132	68.7046	424
-209.689	69.1907	427
-209.255	69.3527	428
-208.816	69.5148	429
-208.858	69.8388	431
-206.962	69.5148	429
-202.673	68.3805	422
-199.848	67.7323	418
-199.42	67.8944	419
-198.988	68.0564	420
-198.552	68.2184	421
-198.111	68.3805	422
-195.33	67.7323	418
-193.031	67.2462	415
-192.597	67.4082	416
-195.845	68.8666	425
-195.843	69.1907	427
-193.551	68.7046	424
-191.271	68.2184	421
-189.005	67.7323	418
-189.001	68.0564	420
-188.989	68.3805	422
-190.305	69.1907	427
-188.495	68.8666	425
-187.135	68.7046	424
-185.34	68.3805	422
-185.302	68.7046	424
-186.125	69.3527	428
-184.334	69.0286	426
-182.121	68.5425	423
-179.493	67.8944	419
-176.883	67.2462	415
-175.986	67.2462	415
-177.62	68.2184	421
-178.809	69.0286	426
-178.305	69.1907	427
-176.136	68.7046	424
-174.806	68.5425	423
-173.892	68.5425	423
-173.795	68.8666	425
-172.063	68.5425	423
-170.339	68.2184	421
-168.624	67.8944	419
-167.719	67.8944	419
-168.007	68.3805	422
-168.283	68.8666	425
-168.152	69.1907	427
-168.012	69.5148	429
-165.916	69.0286	426
-163.833	68.5425	423
-162.149	68.2184	421
-160.856	68.0564	420
-159.948	68.0564	420
-158.661	67.8944	419
-159.261	68.5425	423
-159.096	68.8666	425
-159.293	69.3527	428
-157.628	69.0286	426
-154.868	68.2184	421
-150.301	66.5981	411
-149.412	66.5981	411
-148.524	66.5981	411
-148.354	66.9221	413
-149.246	67.7323	418
-147.633	67.4082	416
-147.086	67.5703	417
-147.587	68.2184	421
-144.935	67.4082	416
-142.997	66.9221	413
-142.104	66.9221	413
-140.87	66.7601	412
-139.639	66.5981	411
-138.751	66.5981	411
-138.533	66.9221	413
-137.307	66.7601	412
-136.748	66.9221	413
-136.842	67.4082	416
-136.269	67.5703	417
-135.368	67.5703	417
-133.821	67.2462	415
-132.284	66.9221	413
-131.709	67.0842	414
-130.814	67.0842	414
-129.605	66.9221	413
-129.024	67.0842	414
-127.201	66.5981	411
-126.927	66.9221	413
-127.255	67.5703	417
-126.353	67.5703	417
-125.452	67.5703	417
-125.148	67.8944	419
-123.353	67.4082	416
-122.159	67.2462	415
-121.262	67.2462	415
-120.365	67.2462	415
-119.468	67.2462	415
-118.285	67.0842	414
-117.957	67.4082	416
-115.651	66.5981	411
-117.275	68.0564	420
-114.705	67.0842	414
-113.535	66.9221	413
-112.37	66.7601	412
-112.02	67.0842	414
-111.394	67.2462	415
-111.029	67.5703	417
-110.656	67.8944	419
-110.012	68.0564	420
-108.585	67.7323	418
-108.969	68.5425	423
-108.055	68.5425	423
-106.887	68.3805	422
-104.719	67.5703	417
-103.818	67.5703	417
-102.916	67.5703	417
-101.281	67.0842	414
-100.386	67.0842	414
-99.2506	66.9221	413
-98.596	67.0842	414
-97.465	66.9221	413
-95.8707	66.436	410
-94.0578	65.7879	406
-94.0981	66.436	410
-92.0751	65.6258	405
-90.2989	64.9777	401
-89.655	65.1397	402
-90.7738	66.5981	411
-90.104	66.7601	412
-88.5638	66.274	409
-87.2509	65.9499	407
-86.5833	66.1119	408
-86.3315	66.5981	411
-86.2746	67.2462	415
-85.3774	67.2462	415
-84.4803	67.2462	415
-83.5832	67.2462	415
-83.2838	67.7323	418
-82.9715	68.2184	421
-81.4766	67.7323	418
-79.6093	66.9221	413
-77.9541	66.274	409
-76.8815	66.1119	408
-75.627	65.7879	406
-76.2222	67.0842	414
-74.9634	66.7601	412
-73.5334	66.274	409
-72.4716	66.1119	408
-70.8878	65.4638	404
-69.1479	64.6536	399
-68.1143	64.4915	398
-67.0849	64.3295	397
-67.2276	65.3017	403
-67.3444	66.274	409
-67.1102	66.9221	413
-67.1794	67.8944	419
-65.9573	67.5703	417
-65.0559	67.5703	417
-63.6929	67.0842	414
-62.798	67.0842	414
-61.3049	66.436	410
-60.1239	66.1119	408
-58.9515	65.7879	406
-58.3599	66.1119	408
-57.9006	66.5981	411
-57.2895	66.9221	413
-56.2602	66.7601	412
-55.504	66.9221	413
-54.8756	67.2462	415
-53.7184	66.9221	413
-52.4419	66.436	410
-51.1783	65.9499	407
-50.4221	66.1119	408
-49.783	66.436	410
-49.2545	66.9221	413
-48.4788	67.0842	414
-47.9286	67.5703	417
-47.14	67.7323	418
-45.9045	67.2462	415
-44.899	67.0842	414
-43.7914	66.7601	412
-42.4843	66.1119	408
-41.6023	66.1119	408
-40.7203	66.1119	408
-39.6431	65.7879	406
-38.8609	65.9499	407
-37.8878	65.7879	406
-37.0101	65.7879	406
-36.1324	65.7879	406
-35.2548	65.7879	406
-34.6311	66.274	409
-33.9945	66.7601	412
-33.1039	66.7601	412
-32.2915	66.9221	413
-30.9425	65.9499	407
-29.8411	65.4638	404
-28.9678	65.4638	404
-28.2335	65.7879	406
-27.2211	65.4638	404
-26.2174	65.1397	402
-25.3483	65.1397	402
-24.4793	65.1397	402
-23.6691	65.3017	403
-22.7413	65.1397	402
-21.9267	65.3017	403
-21.16	65.6258	405
-20.3346	65.7879	406
-19.6487	66.436	410
-18.8997	66.9221	413
-17.9633	66.7601	412
-16.8654	65.9499	407
-15.6714	64.6536	399
-14.6604	64.0054	395
-13.8415	64.1675	396
-13.0511	64.4915	398
-12.2213	64.6536	399
-11.5011	65.4638	404
-10.6804	65.7879	406
-9.8269	65.9499	407
-8.9251	65.7879	406
-7.84923	64.1675	396
-6.94021	63.6813	393
-6.10616	63.8434	394
-5.29445	64.3295	397
-4.53682	65.7879	406
-3.65916	65.7879	406
-2.76095	65.3017	403
-1.87103	64.6536	399
-1.01103	64.8156	400
-0.147075	65.1397	402
0.725526	65.4638	404
1.57907	64.6536	399
2.42936	64.3295	397
3.30412	64.6536	399
4.17709	64.8156	400
5.02917	64.6536	399
5.89169	64.6536	399
6.85578	65.6258	405
7.75037	65.7879	406
8.64927	65.9499	407
9.48227	65.6258	405
10.3578	65.6258	405
11.2333	65.6258	405
12.0789	65.4638	404
12.8881	65.1397	402
13.7571	65.1397	402
14.5897	64.9777	401
15.5336	65.3017	403
16.3641	65.1397	402
17.1474	64.8156	400
18.1922	65.4638	404
19.0655	65.4638	404
20.1363	66.1119	408
20.9152	65.7879	406
21.7392	65.6258	405
22.7264	65.9499	407
23.8382	66.5981	411
24.7266	66.5981	411
25.4281	66.1119	408
26.3746	66.274	409
27.2587	66.274	409
28.1429	66.274	409
29.2399	66.7601	412
30.4231	67.4082	416
31.2471	67.2462	415
32.0667	67.0842	414
32.5636	66.274	409
33.2024	65.7879	406
33.9122	65.4638	404
35.0438	65.9499	407
36.2767	66.5981	411
37.4364	67.0842	414
38.5166	67.4082	416
39.4158	67.4082	416
39.1522	65.4638	404
40.0255	65.4638	404
41.5062	66.436	410
42.4959	66.5981	411
43.7011	67.0842	414
44.596	67.0842	414
45.491	67.0842	414
46.498	67.2462	415
47.1667	66.9221	413
47.3613	65.9499	407
47.4114	64.8156	400
48.0347	64.4915	398
48.6493	64.1675	396
49.2554	63.8434	394
50.3614	64.1675	396
52.6402	65.9499	407
54.046	66.5981	411
55.0681	66.7601	412
56.3662	67.2462	415
56.9874	66.9221	413
57.74	66.7601	412
58.346	66.436	410
58.6544	65.7879	406
59.2388	65.4638	404
60.261	65.6258	405
61.1364	65.6258	405
62.0119	65.6258	405
62.7322	65.4638	404
63.4481	65.3017	403
64.4788	65.4638	404
65.6757	65.7879	406
66.0616	65.3017	403
66.7666	65.1397	402
67.9722	65.4638	404
69.1863	65.7879	406
70.2365	65.9499	407
70.9416	65.7879	406
71.6424	65.6258	405
72.6969	65.7879	406
73.7558	65.9499	407
74.6356	65.9499	407
75.3299	65.7879	406
76.3953	65.9499	407
77.4649	66.1119	408
78.3469	66.1119	408
79.4231	66.274	409
80.1109	66.1119	408
80.5958	65.7879	406
81.0721	65.4638	404
80.9313	64.6536	399
82.2038	64.9777	401
82.8635	64.8156	400
83.7282	64.8156	400
84.8044	64.9777	401
85.8849	65.1397	402
86.9697	65.3017	403
87.4049	64.9777	401
89.1523	65.6258	405
90.2501	65.7879	406
90.0054	64.9777	401
90.8723	64.9777	401
91.7391	64.9777	401
92.8369	65.1397	402
93.7059	65.1397	402
95.516	65.7879	406
96.6311	65.9499	407
97.2713	65.7879	406
97.6655	65.4638	404
96.3436	64.0054	395
97.9357	64.4915	398
98.7961	64.4915	398
99.6564	64.4915	398
100.769	64.6536	399
101.632	64.6536	399
101.467	64.0054	395
102.839	64.3295	397
104.219	64.6536	399
105.609	64.9777	401
106.476	64.9777	401
107.878	65.3017	403
107.939	64.8156	400
109.62	65.3017	403
111.314	65.7879	406
112.191	65.7879	406
112.512	65.4638	404
113.105	65.3017	403
113.976	65.3017	403
113.992	64.8156	400
115.144	64.9777	401
116.3	65.1397	402
117.752	65.4638	404
118.332	65.3017	403
119.203	65.3017	403
120.372	65.4638	404
121.245	65.4638	404
121.817	65.3017	403
122.079	64.9777	401
123.865	65.4638	404
124.43	65.3017	403
124.99	65.1397	402
125.546	64.9777	401
126.413	64.9777	401
125.693	64.1675	396
125.91	63.8434	394
126.761	63.8434	394
128.909	64.4915	398
129.443	64.3295	397
130.958	64.6536	399
131.49	64.4915	398
131.353	64.0054	395
132.206	64.0054	395
133.734	64.3295	397
134.931	64.4915	398
137.156	65.1397	402
139.399	65.7879	406
140.622	65.9499	407
141.502	65.9499	407
140.982	65.3017	403
140.093	64.4915	398
139.891	64.0054	395
138.251	62.8712	388
138.731	62.7091	387
141.371	63.5193	392
144.395	64.4915	398
148.175	65.7879	406
148.686	65.6258	405
149.192	65.4638	404
150.065	65.4638	404
150.939	65.4638	404
150.685	64.9777	401
151.174	64.8156	400
151.278	64.4915	398
152.139	64.4915	398
151.846	64.0054	395
153.086	64.1675	396
154.72	64.4915	398
154.798	64.1675	396
155.261	64.0054	395
155.325	63.6813	393
159.353	64.9777	401
159.421	64.6536	399
159.48	64.3295	397
161.55	64.8156	400
163.227	65.1397	402
161.647	64.1675	396
161.682	63.8434	394
162.121	63.6813	393
163.8	64.0054	395
164.654	64.0054	395
165.508	64.0054	395
165.94	63.8434	394
167.215	64.0054	395
168.495	64.1675	396
170.206	64.4915	398
171.926	64.8156	400
174.087	65.3017	403
174.958	65.3017	403
174.084	64.6536	399
173.631	64.1675	396
173.606	63.8434	394
174.015	63.6813	393
174.419	63.5193	392
175.267	63.5193	392
175.665	63.3573	391
176.962	63.5193	392
178.263	63.6813	393
180.024	64.0054	395
182.251	64.4915	398
183.572	64.6536	399
183.972	64.4915	398
183.439	64.0054	395
183.36	63.6813	393
182.803	63.1952	390
184.588	63.5193	392
185.909	63.6813	393
185.332	63.1952	390
186.653	63.3573	391
190.375	64.3295	397
192.197	64.6536	399
191.124	64.0054	395
191.492	63.8434	394
191.367	63.5193	392
191.234	63.1952	390
193.555	63.6813	393
197.372	64.6536	399
200.719	65.4638	404
199.097	64.6536	399
196.452	63.5193	392
196.796	63.3573	391
198.652	63.6813	393
197.978	63.1952	390
198.312	63.0332	389
198.641	62.8712	388
203.592	64.1675	396
205.997	64.6536	399
207.897	64.9777	401
209.284	65.1397	402
208.585	64.6536	399
208.398	64.3295	397
208.202	64.0054	395
207.468	63.5193	392
209.909	64.0054	395
210.23	63.8434	394
216.439	65.4638	404
215.16	64.8156	400
215.485	64.6536	399
216.348	64.6536	399
217.755	64.8156	400
217.526	64.4915	398
217.838	64.3295	397
218.145	64.1675	396
219.001	64.1675	396
219.302	64.0054	395
220.713	64.1675	396
225.486	65.3017	403
229.165	66.1119	408
231.175	66.436	410
232.061	66.436	410
231.811	66.1119	408
229.842	65.3017	403
226.133	64.0054	395
224.688	63.3573	391
224.38	63.0332	389
226.379	63.3573	391
231.873	64.6536	399
233.319	64.8156	400
235.354	65.1397	402
236.223	65.1397	402
236.503	64.9777	401
236.778	64.8156	400
235.266	64.1675	396
231.948	63.0332	389
231.592	62.7091	387
231.227	62.385	385
235.074	63.1952	390
237.731	63.6813	393
240.402	64.1675	396
241.258	64.1675	396
242.726	64.3295	397
245.424	64.8156	400
246.905	64.9777	401
247.772	64.9777	401
248.639	64.9777	401
248.883	64.8156	400
247.25	64.1675	396
247.48	64.0054	395
-306.804	68.3074	416
-305.905	68.3074	416
-303.54	67.979	414
-302.645	67.979	414
-303.207	68.3074	416
-305.215	68.9642	420
-300.684	68.1432	415
-296.898	67.4864	411
-296.009	67.4864	411
-292.967	66.9938	408
-292.8	67.158	409
-295.485	67.979	414
-298.148	68.8	419
-297.242	68.8	419
-296.336	68.8	419
-293.315	68.3074	416
-293.119	68.4716	417
-292.918	68.6358	418
-293.412	68.9642	420
-292.504	68.9642	420
-294.373	69.621	424
-291.38	69.1284	421
-290.47	69.1284	421
-289.56	69.1284	421
-290.021	69.4568	423
-288.423	69.2926	422
-287.511	69.2926	422
-282.524	68.3074	416
-282.302	68.4716	417
-282.075	68.6358	418
-279.826	68.3074	416
-279.597	68.4716	417
-280.033	68.8	419
-279.127	68.8	419
-281.541	69.621	424
-278.639	69.1284	421
-277.729	69.1284	421
-276.819	69.1284	421
-275.254	68.9642	420
-272.386	68.4716	417
-270.833	68.3074	416
-269.934	68.3074	416
-268.388	68.1432	415
-268.136	68.3074	416
-269.806	68.9642	420
-270.179	69.2926	422
-271.819	69.9494	426
-273.441	70.6062	430
-268.076	69.4568	423
-269.688	70.1136	427
-268.764	70.1136	427
-267.841	70.1136	427
-266.918	70.1136	427
-264.126	69.621	424
-262.589	69.4568	423
-262.912	69.7852	425
-264.459	70.442	429
-264.76	70.7704	431
-265.665	71.263	434
-266.557	71.7556	437
-266.828	72.084	439
-267.09	72.4124	441
-264.326	71.9198	438
-263.379	71.9198	438
-259.437	71.0988	433
-258.501	71.0988	433
-256.375	70.7704	431
-254.851	70.6062	430
-248.606	69.1284	421
-245.931	68.6358	418
-246.2	68.9642	420
-247.044	69.4568	423
-247.294	69.7852	425
-246.375	69.7852	425
-247.189	70.2778	428
-246.839	70.442	429
-246.485	70.6062	430
-246.126	70.7704	431
-240.643	69.4568	423
-240.862	69.7852	425
-239.944	69.7852	425
-239.587	69.9494	426
-238.667	69.9494	426
-238.304	70.1136	427
-234.601	69.2926	422
-233.135	69.1284	421
-231.673	68.9642	420
-231.315	69.1284	421
-229.857	68.9642	420
-227.859	68.6358	418
-226.413	68.4716	417
-224.971	68.3074	416
-225.687	68.8	419
-225.854	69.1284	421
-226.013	69.4568	423
-224.566	69.2926	422
-223.654	69.2926	422
-223.27	69.4568	423
-222.881	69.621	424
-221.964	69.621	424
-220.526	69.4568	423
-219.093	69.2926	422
-218.181	69.2926	422
-217.268	69.2926	422
-217.382	69.621	424
-217.997	70.1136	427
-217.582	70.2778	428
-217.163	70.442	429
-216.235	70.442	429
-214.806	70.2778	428
-211.882	69.621	424
-209.473	69.1284	421
-207.572	68.8	419
-206.173	68.6358	418
-206.252	68.9642	420
-207.299	69.621	424
-208.33	70.2778	428
-204.497	69.2926	422
-200.208	68.1432	415
-198.83	67.979	414
-196.979	67.6506	412
-196.089	67.6506	412
-195.198	67.6506	412
-194.779	67.8148	413
-194.356	67.979	414
-189.722	66.6654	406
-187.449	66.1728	403
-188.893	66.9938	408
-187.089	66.6654	406
-187.588	67.158	409
-187.16	67.3222	410
-186.728	67.4864	411
-187.196	67.979	414
-186.301	67.979	414
-186.302	68.3074	416
-184.511	67.979	414
-184.06	68.1432	415
-182.721	67.979	414
-183.583	68.6358	418
-182.679	68.6358	418
-181.776	68.6358	418
-180.007	68.3074	416
-177.816	67.8148	413
-176.066	67.4864	411
-173.899	66.9938	408
-173.017	66.9938	408
-175.511	68.3074	416
-175.87	68.8	419
-175.8	69.1284	421
-174.474	68.9642	420
-173.98	69.1284	421
-174.714	69.7852	425
-174.613	70.1136	427
-172.47	69.621	424
-169.53	68.8	419
-166.612	67.979	414
-164.917	67.6506	412
-164.822	67.979	414
-165.511	68.6358	418
-166.577	69.4568	423
-166.445	69.7852	425
-164.748	69.4568	423
-162.671	68.9642	420
-160.223	68.3074	416
-157.792	67.6506	412
-156.52	67.4864	411
-156.01	67.6506	412
-155.496	67.8148	413
-156.101	68.4716	417
-155.944	68.8	419
-151.338	67.158	409
-149.718	66.8296	407
-148.838	66.8296	407
-147.231	66.5012	405
-145.994	66.337	404
-145.48	66.5012	405
-146.033	67.158	409
-144.794	66.9938	408
-143.207	66.6654	406
-142.679	66.8296	407
-141.103	66.5012	405
-140.92	66.8296	407
-140.384	66.9938	408
-138.476	66.5012	405
-137.601	66.5012	405
-137.063	66.6654	406
-136.521	66.8296	407
-135.641	66.8296	407
-134.43	66.6654	406
-135.197	67.4864	411
-134.635	67.6506	412
-133.095	67.3222	410
-131.564	66.9938	408
-131.323	67.3222	410
-131.073	67.6506	412
-130.498	67.8148	413
-129.292	67.6506	412
-127.778	67.3222	410
-126.582	67.158	409
-125.39	66.9938	408
-124.203	66.8296	407
-123.929	67.158	409
-124.249	67.8148	413
-122.759	67.4864	411
-121.574	67.3222	410
-121.276	67.6506	412
-120.385	67.6506	412
-119.785	67.8148	413
-118.316	67.4864	411
-116.285	66.8296	407
-115.405	66.8296	407
-115.369	67.3222	410
-114.483	67.3222	410
-113.043	66.9938	408
-111.886	66.8296	407
-112.37	67.6506	412
-111.479	67.6506	412
-111.394	68.1432	415
-111.295	68.6358	418
-110.92	68.9642	420
-108.702	68.1432	415
-107.026	67.6506	412
-105.62	67.3222	410
-104.989	67.4864	411
-104.101	67.4864	411
-103.212	67.4864	411
-102.573	67.6506	412
-101.929	67.8148	413
-100.792	67.6506	412
-99.416	67.3222	410
-98.049	66.9938	408
-96.4526	66.5012	405
-95.5771	66.5012	405
-94.4678	66.337	404
-94.0578	66.6654	406
-93.4096	66.8296	407
-93.2118	67.3222	410
-92.1003	67.158	409
-90.5471	66.6654	406
-88.1235	65.516	399
-87.0422	65.3518	398
-86.1819	65.3518	398
-85.3215	65.3518	398
-85.0978	65.8444	401
-85.4912	66.8296	407
-85.0272	67.158	409
-83.9373	66.9938	408
-83.0554	66.9938	408
-82.5762	67.3222	410
-82.2876	67.8148	413
-80.2123	66.8296	407
-78.9427	66.5012	405
-78.0672	66.5012	405
-76.8105	66.1728	403
-75.7509	66.0086	402
-74.6956	65.8444	401
-75.3017	67.158	409
-74.5995	67.3222	410
-73.5334	67.158	409
-71.9387	66.5012	405
-70.3614	65.8444	401
-68.628	65.0234	396
-67.772	65.0234	396
-67.0849	65.1876	397
-65.8931	64.8592	395
-65.3685	65.1876	397
-65.3228	66.0086	402
-64.9348	66.5012	405
-64.2174	66.6654	406
-63.3398	66.6654	406
-62.7698	66.9938	408
-62.3429	67.4864	411
-60.7068	66.6654	406
-59.5344	66.337	404
-58.2255	65.8444	401
-57.5017	66.0086	402
-57.1962	66.6654	406
-57.0121	67.4864	411
-56.2602	67.6506	412
-55.2352	67.4864	411
-54.2145	67.3222	410
-53.1981	67.158	409
-51.9303	66.6654	406
-50.8011	66.337	404
-49.9278	66.337	404
-49.4187	66.8296	407
-48.7774	67.158	409
-47.8933	67.158	409
-47.1241	67.3222	410
-45.8994	66.8296	407
-44.7984	66.5012	405
-43.5975	66.0086	402
-42.8348	66.1728	403
-42.1719	66.5012	405
-41.3984	66.6654	406
-40.4209	66.5012	405
-39.5454	66.5012	405
-38.7654	66.6654	406
-37.8878	66.6654	406
-37.1924	66.9938	408
-36.1324	66.6654	406
-35.0811	66.337	404
-33.9538	65.8444	401
-33.417	66.5012	405
-32.9432	67.3222	410
-31.9005	66.9938	408
-30.7145	66.337	404
-29.5457	65.6802	400
-28.4659	65.1876	397
-27.5381	65.0234	396
-26.6821	65.0234	396
-25.8261	65.0234	396
-25.1592	65.516	399
-24.4184	65.8444	401
-23.6103	66.0086	402
-22.7413	66.0086	402
-21.8723	66.0086	402
-21.0033	66.0086	402
-20.2345	66.337	404
-19.457	66.6654	406
-18.6251	66.8296	407
-17.6581	66.5012	405
-16.6583	66.0086	402
-15.6714	65.516	399
-14.6233	64.695	394
-13.7366	64.5308	393
-12.9199	64.695	394
-12.1601	65.1876	397
-11.3873	65.6802	400
-10.6015	66.1728	403
-9.73032	66.1728	403
-8.77122	65.516	399
-7.84923	65.0234	396
-6.94021	64.5308	393
-6.09066	64.5308	393
-5.25444	64.695	394
-4.43625	65.1876	397
-3.59607	65.516	399
-2.73355	65.516	399
-1.85696	65.0234	396
-0.998392	64.8592	395
-0.145246	65.1876	397
0.707567	64.695	394
1.56324	64.8592	395
2.42936	65.1876	397
3.28756	65.1876	397
4.13532	65.0234	396
4.96615	64.695	394
5.78833	64.3666	392
6.72036	65.1876	397
7.6931	66.1728	403
8.58552	66.337	404
9.43544	66.1728	403
10.3066	66.1728	403
11.1778	66.1728	403
11.9294	65.516	399
12.8239	65.6802	400
13.7229	65.8444	401
14.5897	65.8444	401
15.3795	65.516	399
16.2827	65.6802	400
17.0188	65.1876	397
17.877	65.1876	397
18.9239	65.8444	401
19.7908	65.8444	401
20.8122	66.337	404
21.5245	65.8444	401
22.5588	66.337	404
23.4902	66.5012	405
24.2453	66.1728	403
24.9296	65.6802	400
25.6653	65.3518	398
26.5256	65.3518	398
27.386	65.3518	398
27.9625	64.695	394
29.6918	66.6654	406
30.6447	66.8296	407
31.602	66.9938	408
31.6878	65.3518	398
32.4664	65.1876	397
33.4085	65.3518	398
34.7855	66.337	404
36.0119	66.9938	408
37.1652	67.4864	411
37.7759	66.9938	408
38.2788	66.337	404
38.8614	65.8444	401
39.8274	66.0086	402
40.8988	66.337	404
41.979	66.6654	406
42.9622	66.8296	407
44.1652	67.3222	410
44.8317	66.9938	408
45.9378	67.3222	410
46.4814	66.8296	407
46.8958	66.1728	403
47.1743	65.3518	398
47.914	65.1876	397
48.1579	64.3666	392
49.0053	64.3666	392
50.2343	64.8592	395
51.4761	65.3518	398
52.468	65.516	399
53.4642	65.6802	400
54.7363	66.1728	403
56.0215	66.6654	406
57.1794	66.9938	408
57.7768	66.6654	406
58.7989	66.8296	407
58.7989	65.8444	401
58.4754	64.5308	393
59.4759	64.695	394
60.787	65.1876	397
61.6452	65.1876	397
62.6609	65.3518	398
63.8404	65.6802	400
64.5433	65.516	399
65.078	65.1876	397
66.1023	65.3518	398
67.4674	65.8444	401
68.6751	66.1728	403
68.856	65.516	399
69.5438	65.3518	398
68.8121	63.874	389
69.653	63.874	389
70.8563	64.2024	391
71.7015	64.2024	391
74.5877	66.0086	402
75.0813	65.6802	400
76.3258	66.0086	402
77.9629	66.6654	406
79.2289	66.9938	408
79.9145	66.8296	407
80.0003	66.1728	403
79.8681	65.3518	398
79.9171	64.695	394
80.3588	64.3666	392
81.2062	64.3666	392
82.4723	64.695	394
83.1125	64.5308	393
83.5348	64.2024	391
84.8116	64.5308	393
85.8791	64.695	394
87.3912	65.1876	397
88.694	65.516	399
89.1076	65.1876	397
89.5126	64.8592	395
90.824	65.1876	397
91.9132	65.3518	398
92.3073	65.0234	396
94.1044	65.6802	400
95.2065	65.8444	401
96.0734	65.8444	401
95.9732	65.1876	397
95.8558	64.5308	393
96.2132	64.2024	391
97.5549	64.5308	393
98.4045	64.5308	393
98.4964	64.0382	390
100.104	64.5308	393
101.21	64.695	394
102.58	65.0234	396
103.697	65.1876	397
104.555	65.1876	397
105.148	65.0234	396
105.201	64.5308	393
106.59	64.8592	395
106.9	64.5308	393
109.12	65.3518	398
110.257	65.516	399
110.841	65.3518	398
111.982	65.516	399
112.562	65.3518	398
113.137	65.1876	397
113.421	64.8592	395
115.722	65.6802	400
116.878	65.8444	401
116.864	65.3518	398
118.02	65.516	399
119.776	66.0086	402
120.945	66.1728	403
121.817	66.1728	403
122.079	65.8444	401
121.106	64.8592	395
121.034	64.3666	392
121.57	64.2024	391
123.981	65.0234	396
124.837	65.0234	396
124.741	64.5308	393
125.271	64.3666	392
126.44	64.5308	393
127.937	64.8592	395
127.813	64.3666	392
128.988	64.5308	393
131.159	65.1876	397
131.685	65.0234	396
131.872	64.695	394
132.723	64.695	394
133.914	64.8592	395
135.792	65.3518	398
138.712	66.337	404
140.276	66.6654	406
140.806	66.5012	405
140.283	65.8444	401
139.038	64.8592	395
138.829	64.3666	392
138.607	63.874	389
139.448	63.874	389
140.65	64.0382	390
141.13	63.874	389
144.161	64.8592	395
146.116	65.3518	398
145.869	64.8592	395
147.465	65.1876	397
147.95	65.0234	396
148.806	65.0234	396
147.394	64.0382	390
147.857	63.874	389
149.08	64.0382	390
149.539	63.874	389
150.767	64.0382	390
152.776	64.5308	393
153.625	64.5308	393
153.689	64.2024	391
153.744	63.874	389
153.392	63.3814	386
154.227	63.3814	386
156.266	63.874	389
158.723	64.5308	393
158.76	64.2024	391
159.606	64.2024	391
160.04	64.0382	390
160.883	64.0382	390
162.556	64.3666	392
164.237	64.695	394
163.832	64.2024	391
164.256	64.0382	390
165.099	64.0382	390
167.218	64.5308	393
168.496	64.695	394
169.347	64.695	394
170.199	64.695	394
171.919	65.0234	396
170.594	64.2024	391
169.685	63.5456	387
168.318	62.7246	382
167.816	62.232	379
173.085	63.874	389
174.373	64.0382	390
174.766	63.874	389
174.704	63.5456	387
