-84.9055	68.1559	478
-81.7666	66.4448	466
-81.2791	66.8726	469
-80.9499	67.4429	473
-80.6033	68.0133	477
-80.0726	68.441	480
-79.1996	68.5836	481
-78.4848	68.8688	483
-76.4787	68.0133	477
-74.4986	67.1578	471
-73.3244	67.0152	470
-73.0776	67.7281	475
-72.0508	67.7281	475
-70.8745	67.5855	474
-69.7025	67.4429	473
-68.2444	67.0152	470
-67.9435	67.7281	475
-66.9167	67.7281	475
-65.8899	67.7281	475
-64.7265	67.5855	474
-63.7019	67.5855	474
-62.2806	67.1578	471
-61.2624	67.1578	471
-60.1163	67.0152	470
-59.4775	67.4429	473
-58.5786	67.5855	474
-56.9469	66.8726	469
-55.6945	66.5874	467
-54.9192	66.8726	469
-54.2501	67.3003	472
-53.4554	67.5855	474
-52.6519	67.8707	476
-51.1892	67.3003	472
-49.85	66.8726	469
-48.3155	66.1597	464
-47.0065	65.7319	461
-46.01	65.7319	461
-45.2087	66.0171	463
-44.8762	67.0152	470
-43.9535	67.1578	471
-42.8442	67.0152	470
-41.6502	66.73	468
-40.2912	66.1597	464
-39.2035	66.0171	463
-38.0376	65.7319	461
-36.8803	65.4467	459
-35.8881	65.4467	459
-35.124	65.8745	462
-34.273	66.1597	464
-33.485	66.5874	467
-32.6146	66.8726	469
-31.6681	67.0152	470
-30.6521	67.0152	470
-29.3209	66.3022	465
-28.0112	65.5893	460
-26.8406	65.1616	457
-25.7961	65.019	456
-24.8104	65.019	456
-23.6679	64.5912	453
-22.889	65.1616	457
-21.7573	64.7338	454
-20.8217	64.8764	455
-19.7945	64.7338	454
-18.8545	64.8764	455
-17.8316	64.7338	454
-16.9616	65.1616	457
-16.0436	65.4467	459
-15.1169	65.7319	461
-14.1204	65.7319	461
-13.0954	65.5893	460
-12.101	65.5893	460
-11.1066	65.5893	460
-10.0243	65.019	456
-8.89976	64.0209	449
-7.87617	63.5931	446
-6.95854	64.0209	449
-6.02794	64.4486	452
-5.11789	65.3042	458
-4.14585	65.5893	460
-3.15146	65.5893	460
-2.16176	65.7319	461
-1.16521	65.7319	461
-0.167929	65.4467	459
0.815319	64.7338	454
1.78486	64.3061	451
2.75368	64.1635	450
3.74301	64.4486	452
4.69922	64.1635	450
5.73502	64.8764	455
6.68906	64.5912	453
7.54983	63.5931	446
8.57122	64.0209	449
9.54183	64.0209	449
10.489	63.8783	448
11.5342	64.3061	451
12.7588	65.5893	460
13.8727	66.1597	464
14.8437	66.0171	463
15.7077	65.4467	459
16.5908	65.019	456
17.538	64.8764	455
18.4401	64.5912	453
19.3765	64.4486	452
20.3086	64.3061	451
21.2363	64.1635	450
22.2585	64.3061	451
23.6455	65.4467	459
24.9598	66.3022	465
25.965	66.3022	465
26.4482	65.019	456
27.1933	64.4486	452
28.295	64.7338	454
29.3409	64.8764	455
30.3912	65.019	456
31.2393	64.7338	454
32.1497	64.5912	453
33.2021	64.7338	454
34.4094	65.1616	457
35.7846	65.8745	462
37.1814	66.5874	467
38.1092	66.4448	466
38.8647	66.0171	463
39.6934	65.7319	461
40.9547	66.1597	464
42.3194	66.73	468
44.4422	68.441	480
45.1956	68.0133	477
46.0329	67.7281	475
46.069	66.3022	465
46.8717	66.0171	463
47.976	66.1597	464
48.979	66.1597	464
49.6589	65.7319	461
50.2159	65.1616	457
50.4195	64.1635	450
51.2781	64.0209	449
52.2487	64.0209	449
53.1007	63.8783	448
53.5864	63.308	444
54.7919	63.5931	446
56.2561	64.1635	450
58.1191	65.1616	457
59.6244	65.7319	461
61.4099	66.5874	467
62.1521	66.3022	465
62.0707	65.1616	457
60.8509	62.8802	441
61.2436	62.3099	437
62.3306	62.4524	438
64.7221	63.8783	448
67.5968	65.7319	461
69.7837	66.8726	469
69.8918	66.0171	463
70.7395	65.8745	462
70.9619	65.1616	457
71.6349	64.8764	455
72.6185	64.8764	455
73.4403	64.7338	454
74.5856	64.8764	455
75.5692	64.8764	455
76.5528	64.8764	455
77.366	64.7338	454
78.0022	64.4486	452
78.6299	64.1635	450
79.4258	64.0209	449
80.3964	64.0209	449
82.4543	64.8764	455
84.1714	65.4467	459
85.3491	65.5893	460
85.9681	65.3042	458
86.1987	64.7338	454
86.6041	64.3061	451
88.3558	64.8764	455
88.9466	64.5912	453
90.1244	64.7338	454
91.3065	64.8764	455
92.4929	65.019	456
93.4787	65.019	456
93.8429	64.5912	453
93.5663	63.7357	447
94.1096	63.4505	445
95.0715	63.4505	445
96.4651	63.7357	447
98.0853	64.1635	450
99.4983	64.4486	452
100.698	64.5912	453
101.228	64.3061	451
101.523	63.8783	448
102.263	63.7357	447
102.998	63.5931	446
105.128	64.3061	451
106.573	64.5912	453
107.315	64.4486	452
107.813	64.1635	450
108.544	64.0209	449
109.271	63.8783	448
110.731	64.1635	450
111.208	63.8783	448
111.175	63.308	444
112.892	63.7357	447
114.877	64.3061	451
117.65	65.3042	458
119.417	65.7319	461
118.324	64.5912	453
116.67	63.1654	443
116.034	62.3099	437
116.979	62.3099	437
118.194	62.4524	438
120.229	63.0228	442
121.732	63.308	444
122.692	63.308	444
123.373	63.1654	443
124.05	63.0228	442
126.42	63.7357	447
128.811	64.4486	452
130.363	64.7338	454
130.476	64.3061	451
131.16	64.1635	450
132.72	64.4486	452
134.584	64.8764	455
135.866	65.019	456
136.851	65.019	456
137.535	64.8764	455
138.518	64.8764	455
139.195	64.7338	454
138.942	64.1635	450
138.049	63.308	444
139.009	63.308	444
139.969	63.308	444
140.294	63.0228	442
140.61	62.7376	440
142.205	63.0228	442
145.427	64.0209	449
146.724	64.1635	450
148.681	64.5912	453
149.661	64.5912	453
150.307	64.4486	452
151.619	64.5912	453
152.935	64.7338	454
154.934	65.1616	457
157.286	65.7319	461
158.97	66.0171	463
159.279	65.7319	461
157.842	64.7338	454
155.675	63.4505	445
156.989	63.5931	446
157.245	63.308	444
158.561	63.4505	445
160.24	63.7357	447
160.485	63.4505	445
161.084	63.308	444
162.044	63.308	444
162.27	63.0228	442
161.748	62.4524	438
162.695	62.4524	438
166.257	63.4505	445
169.098	64.1635	450
167.047	63.0228	442
166.482	62.4524	438
169.34	63.1654	443
172.22	63.8783	448
176.281	65.019	456
179.988	66.0171	463
180.989	66.0171	463
179.238	65.019	456
176.667	63.7357	447
177.236	63.5931	446
177.401	63.308	444
178.762	63.4505	445
178.513	63.0228	442
183.529	64.4486	452
184.914	64.5912	453
186.303	64.7338	454
187.285	64.7338	454
188.266	64.7338	454
188.414	64.4486	452
188.553	64.1635	450
189.105	64.0209	449
190.499	64.1635	450
192.748	64.5912	453
193.299	64.4486	452
192.987	64.0209	449
191.366	63.1654	443
194.928	64.0209	449
200.262	65.4467	459
203.885	66.3022	465
204.89	66.3022	465
206.338	66.4448	466
206.011	66.0171	463
206.117	65.7319	461
207.114	65.7319	461
208.562	65.8745	462
210.014	66.0171	463
211.927	66.3022	465
210.184	65.4467	459
209.336	64.8764	455
208.009	64.1635	450
208.981	64.1635	450
211.354	64.5912	453
212.333	64.5912	453
211.429	64.0209	449
209.088	63.0228	442
210.994	63.308	444
213.863	63.8783	448
216.27	64.3061	451
218.209	64.5912	453
218.704	64.4486	452
218.709	64.1635	450
219.682	64.1635	450
220.655	64.1635	450
222.12	64.3061	451
224.084	64.5912	453
226.554	65.019	456
231.531	66.1597	464
234.038	66.5874	467
235.048	66.5874	467
234.035	66.0171	463
234.528	65.8745	462
237.056	66.3022	465
236.526	65.8745	462
235.468	65.3042	458
236.458	65.3042	458
237.448	65.3042	458
238.959	65.4467	459
239.951	65.4467	459
240.418	65.3042	458
240.354	65.019	456
241.869	65.1616	457
242.857	65.1616	457
244.379	65.3042	458
245.369	65.3042	458
247.435	65.5893	460
250.049	66.0171	463
249.423	65.5893	460
248.785	65.1616	457
248.133	64.7338	454
248.566	64.5912	453
251.197	65.019	456
252.736	65.1616	457
252.614	64.8764	455
254.155	65.019	456
255.14	65.019	456
257.249	65.3042	458
258.24	65.3042	458
258.664	65.1616	457
257.379	64.5912	453
257.788	64.4486	452
257.047	64.0209	449
258.018	64.0209	449
256.681	63.4505	445
259.959	64.0209	449
262.092	64.3061	451
263.65	64.4486	452
265.798	64.7338	454
263.254	63.8783	448
262.453	63.4505	445
261.047	62.8802	441
261.407	62.7376	440
259.973	62.1673	436
261.514	62.3099	437
264.861	62.8802	441
268.225	63.4505	445
269.187	63.4505	445
267.721	62.8802	441
268.065	62.7376	440
270.239	63.0228	442
273.648	63.5931	446
274.612	63.5931	446
274.959	63.4505	445
275.921	63.4505	445
278.749	63.8783	448
279.093	63.7357	447
276.927	63.0228	442
-363.593	71.3603	493
-362.527	71.3603	493
-362.194	71.505	494
-364.782	72.2288	499
-365.89	72.663	502
-366.258	72.9525	504
-365.168	72.9525	504
-363.356	72.8077	503
-364.43	73.242	506
-364.054	73.3867	507
-361.526	73.0972	505
-359.007	72.8077	503
-357.92	72.8077	503
-355.414	72.5182	501
-352.209	72.084	498
-346.902	71.2155	492
-340.215	70.0575	484
-339.169	70.0575	484
-340.917	70.6365	488
-344.737	71.6498	495
-346.444	72.2288	499
-346.057	72.3735	500
-347.736	72.9525	504
-348.71	73.3867	507
-347.614	73.3867	507
-348.569	73.821	510
-346.103	73.5315	508
-342.289	72.9525	504
-333.075	71.2155	492
-328.638	70.4918	487
-328.93	70.7813	489
-327.873	70.7813	489
-329.49	71.3603	493
-331.089	71.9393	497
-331.342	72.2288	499
-331.587	72.5182	501
-327.865	71.9393	497
-326.133	71.7945	496
-324.406	71.6498	495
-323.336	71.6498	495
-321.615	71.505	494
-321.845	71.7945	496
-322.066	72.084	498
-325.501	73.0972	505
-326.337	73.5315	508
-324.598	73.3867	507
-319.674	72.5182	501
-314.775	71.6498	495
-316.874	72.3735	500
-315.793	72.3735	500
-317.23	72.9525	504
-318.022	73.3867	507
-316.926	73.3867	507
-313.339	72.8077	503
-311.631	72.663	502
-308.071	72.084	498
-305.145	71.6498	495
-304.689	71.7945	496
-299.944	70.926	490
-295.835	70.2023	485
-294.787	70.2023	485
-293.738	70.2023	485
-294.5	70.6365	488
-297.053	71.505	494
-297.783	71.9393	497
-296.112	71.7945	496
-295.039	71.7945	496
-293.967	71.7945	496
-294.076	72.084	498
-293.588	72.2288	499
-290.164	71.6498	495
-286.174	70.926	490
-281.624	70.0575	484
-278.259	69.4786	480
-277.799	69.6233	481
-277.91	69.9128	483
-279.732	70.6365	488
-279.248	70.7813	489
-279.897	71.2155	492
-278.834	71.2155	492
-278.335	71.3603	493
-277.269	71.3603	493
-275.643	71.2155	492
-273.463	70.926	490
-270.736	70.4918	487
-269.13	70.347	486
-269.734	70.7813	489
-270.325	71.2155	492
-269.809	71.3603	493
-268.743	71.3603	493
-267.134	71.2155	492
-264.989	70.926	490
-261.237	70.2023	485
-259.652	70.0575	484
-259.674	70.347	486
-259.688	70.6365	488
-258.103	70.4918	487
-256.523	70.347	486
-253.369	69.7681	482
-250.233	69.1891	478
-251.285	69.7681	482
-251.282	70.0575	484
-252.304	70.6365	488
-252.793	71.0708	491
-246.605	69.6233	481
-243.523	69.0443	477
-241.984	68.8996	476
-241.461	69.0443	477
-241.438	69.3338	479
-240.904	69.4786	480
-240.366	69.6233	481
-239.326	69.6233	481
-242.25	70.7813	489
-244.152	71.6498	495
-243.082	71.6498	495
-241.034	71.3603	493
-238.022	70.7813	489
-235.511	70.347	486
-232.048	69.6233	481
-229.567	69.1891	478
-224.709	68.0311	470
-225.121	68.4653	473
-226.941	69.3338	479
-226.377	69.4786	480
-223.931	69.0443	477
-222.433	68.8996	476
-221.869	69.0443	477
-224.542	70.2023	485
-224.415	70.4918	487
-222.904	70.347	486
-221.397	70.2023	485
-220.802	70.347	486
-219.3	70.2023	485
-216.901	69.7681	482
-215.411	69.6233	481
-214.817	69.7681	482
-214.662	70.0575	484
-212.733	69.7681	482
-210.813	69.4786	480
-207.59	68.7548	475
-203.085	67.5968	467
-200.777	67.1626	464
-198.913	66.8731	462
-200.484	67.7416	468
-203.735	69.1891	478
-204.398	69.7681	482
-202.512	69.4786	480
-199.376	68.7548	475
-196.261	68.0311	470
-195.245	68.0311	470
-195.056	68.3206	472
-197.324	69.4786	480
-197.104	69.7681	482
-195.249	69.4786	480
-189.76	67.8863	469
-188.747	67.8863	469
-186.532	67.4521	466
-185.126	67.3074	465
-184.121	67.3074	465
-184.691	67.8863	469
-183.286	67.7416	468
-181.885	67.5968	467
-177.777	66.4389	459
-175.629	66.0046	456
-176.558	66.7284	461
-180.132	68.4653	473
-181.002	69.1891	478
-180.722	69.4786	480
-179.31	69.3338	479
-177.902	69.1891	478
-175.389	68.6101	474
-173.261	68.1758	471
-170.78	67.5968	467
-168.316	67.0179	463
-166.231	66.5836	460
-165.955	66.8731	462
-166.385	67.4521	466
-168.216	68.6101	474
-167.192	68.6101	474
-162.662	67.1626	464
-160.613	66.7284	461
-161.002	67.3074	465
-160.341	67.4521	466
-159.675	67.5968	467
-159.005	67.7416	468
-156.981	67.3074	465
-155.64	67.1626	464
-154.637	67.1626	464
-154.296	67.4521	466
-152.631	67.1626	464
-151.301	67.0179	463
-149.976	66.8731	462
-149.3	67.0179	463
-150.221	67.8863	469
-149.525	68.0311	470
-148.509	68.0311	470
-147.493	68.0311	470
-145.854	67.7416	468
-144.223	67.4521	466
-142.908	67.3074	465
-143.429	68.0311	470
-144.231	68.8996	476
-141.698	68.1758	471
-139.783	67.7416	468
-137.882	67.3074	465
-137.171	67.4521	466
-135.287	67.0179	463
-133.126	66.4389	459
-130.119	65.4256	452
-128.57	65.1361	450
-128.165	65.4256	452
-128.313	66.0046	456
-129.561	67.1626	464
-129.667	67.7416	468
-128.655	67.7416	468
-127.643	67.7416	468
-125.279	67.0179	463
-123.473	66.5836	460
-122.478	66.5836	460
-122.012	66.8731	462
-121.013	66.8731	462
-119.495	66.5836	460
-117.985	66.2941	458
-117.762	66.7284	461
-116.765	66.7284	461
-115.769	66.7284	461
-114.523	66.5836	460
-113.282	66.4389	459
-113.268	67.0179	463
-112.995	67.4521	466
-112.228	67.5968	467
-111.456	67.7416	468
-109.973	67.4521	466
-109.433	67.7416	468
-108.653	67.8863	469
-107.869	68.0311	470
-107.08	68.1758	471
-105.837	68.0311	470
-104.152	67.5968	467
-101.817	66.7284	461
-100.602	66.5836	460
-99.1741	66.2941	458
-98.184	66.2941	458
-98.0428	66.8731	462
-97.4642	67.1626	464
-96.6691	67.3074	465
-95.8696	67.4521	466
-95.2694	67.7416	468
-94.6605	68.0311	470
-92.6483	67.3074	465
-92.0373	67.5968	467
-89.0785	66.1494	457
-87.8979	66.0046	456
-87.2933	66.2941	458
-87.057	66.8731	462
-86.4308	67.1626	464
-85.9801	67.5968	467
-85.1526	67.7416	468
-83.9611	67.5968	467
-82.4187	67.1626	464
-80.8893	66.7284	461
-80.7592	67.4521	466
-80.7787	68.3206	472
-79.4204	68.0311	470
-78.0708	67.7416	468
-76.0712	66.8731	462
-74.4225	66.2941	458
-73.2721	66.1494	457
-71.6515	65.5704	453
-70.3602	65.2809	451
-70.1545	66.0046	456
-70.6856	67.4521	466
-69.6783	67.4521	466
-68.5236	67.3074	465
-67.228	67.0179	463
-66.3701	67.1626	464
-66.3532	68.1758	471
-65.1963	68.0311	470
-63.7707	67.5968	467
-63.1643	68.0311	470
-61.8839	67.7416	468
-60.482	67.3074	465
-58.8372	66.5836	460
-57.7171	66.4389	459
-57.2192	67.0179	463
-56.4612	67.3074	465
-55.6945	67.5968	467
-54.9192	67.8863	469
-53.6755	67.5968	467
-51.8765	66.5836	460
-50.9927	66.7284	461
-49.8877	66.5836	460
-48.2556	65.7151	454
-47.1701	65.5704	453
-46.1908	65.5704	453
-45.2115	65.5704	453
-44.6229	66.1494	457
-43.635	66.1494	457
-41.9938	65.1361	450
-41.2945	65.5704	453
-40.4043	65.7151	454
-39.2492	65.4256	452
-38.2721	65.4256	452
-38.2026	67.0179	463
-37.3624	67.3074	465
-35.9663	66.5836	460
-34.8199	66.2941	458
-33.7559	66.1494	457
-32.8397	66.2941	458
-31.9192	66.4389	459
-30.8596	66.2941	458
-30	66.5836	460
-29.0686	66.7284	461
-27.8894	66.2941	458
-26.6644	65.7151	454
-25.5133	65.2809	451
-24.4839	65.1361	450
-23.5112	65.1361	450
-22.5384	65.1361	450
-21.5656	65.1361	450
-20.6386	65.2809	451
-19.6201	65.1361	450
-18.6887	65.2809	451
-17.7531	65.4256	452
-16.8131	65.5704	453
-15.9038	65.8599	455
-14.8546	65.5704	453
-13.9672	66.0046	456
-13.0099	66.1494	457
-12.022	66.1494	457
-10.9134	65.4256	452
-9.91434	65.2809	451
-8.8403	64.5572	446
-7.87617	64.5572	446
-6.97404	65.1361	450
-6.09462	66.1494	457
-5.15141	66.7284	461
-4.13684	66.4389	459
-3.09665	65.4256	452
-2.12425	65.5704	453
-1.16268	66.5836	460
-0.167197	66.1494	457
0.811727	65.4256	452
1.75716	64.2677	444
2.69861	63.8334	441
3.6602	63.9782	442
4.67834	64.8466	448
5.72241	65.7151	454
6.64477	65.1361	450
7.51597	64.2677	444
8.47577	64.2677	444
9.32932	63.5439	439
10.3017	63.6887	440
11.3296	64.1229	443
12.5369	65.4256	452
13.6934	66.2941	458
14.7155	66.4389	459
15.6393	66.1494	457
16.518	65.7151	454
17.3067	64.9914	449
18.2366	64.8466	448
19.1622	64.7019	447
19.9033	63.9782	442
20.906	64.1229	443
22.0611	64.7019	447
23.1819	65.1361	450
24.3157	65.5704	453
25.0158	64.8466	448
25.6362	63.9782	442
26.6518	64.1229	443
27.7964	64.5572	446
29.0185	65.1361	450
30.5911	66.4389	459
30.4824	64.1229	443
31.6529	64.5572	446
33.0559	65.4256	452
34.4094	66.1494	457
35.7072	66.7284	461
36.8629	67.0179	463
37.5367	66.4389	459
38.1932	65.8599	455
38.6601	64.9914	449
39.2777	64.4124	445
41.2343	66.0046	456
42.1275	65.8599	455
42.9216	65.5704	453
43.5132	64.9914	449
44.6819	65.2809	451
45.9606	65.7151	454
47.459	66.4389	459
48.3456	66.2941	458
49.0126	65.8599	455
49.5566	65.2809	451
50.3074	64.9914	449
51.0496	64.7019	447
52.1323	64.8466	448
53.1007	64.8466	448
53.7071	64.4124	445
54.3005	63.9782	442
55.506	64.2677	444
56.9745	64.8466	448
58.2017	65.1361	450
60.4894	66.5836	460
60.8155	65.8599	455
60.4409	64.4124	445
60.8509	63.8334	441
61.3838	63.3992	438
62.3306	63.3992	438
63.9998	64.1229	443
66.717	65.8599	455
68.8909	67.0179	463
69.8918	67.0179	463
70.1271	66.2941	458
70.496	65.7151	454
71.0051	65.2809	451
71.8205	65.1361	450
72.6315	64.9914	449
72.9464	64.4124	445
74.5727	64.9914	449
75.8798	65.2809	451
76.5139	64.9914	449
77.4845	64.9914	449
77.9309	64.5572	446
78.8951	64.5572	446
80.0382	64.7019	447
82.2731	65.7151	454
83.4379	65.8599	455
84.0504	65.5704	453
84.2788	64.9914	449
85.4393	65.1361	450
84.8758	63.9782	442
86.0255	64.1229	443
87.5722	64.5572	446
88.7348	64.7019	447
89.5004	64.5572	446
88.2334	62.9649	435
88.5587	62.5307	432
89.9069	62.8202	434
90.6358	62.6754	433
91.7833	62.8202	434
92.9351	62.9649	435
94.3071	63.2544	437
96.5595	64.1229	443
98.1776	64.5572	446
98.9194	64.4124	445
99.8814	64.4124	445
100.843	64.4124	445
100.89	63.8334	441
102.074	63.9782	442
104.195	64.7019	447
105.397	64.8466	448
106.128	64.7019	447
106.136	64.1229	443
106.127	63.5439	439
107.319	63.6887	440
107.532	63.2544	437
109.47	63.8334	441
110.173	63.6887	440
111.882	64.1229	443
113.858	64.7019	447
115.338	64.9914	449
116.827	65.2809	451
115.451	63.9782	442
114.826	63.1097	436
114.707	62.5307	432
115.373	62.386	431
117.384	62.9649	435
118.596	63.1097	436
120.087	63.3992	438
121.863	63.8334	441
122.538	63.6887	440
123.489	63.6887	440
125.572	64.2677	444
126.816	64.4124	445
127.204	64.1229	443
126.715	63.3992	438
127.953	63.5439	439
129.783	63.9782	442
133.697	65.4256	452
134.972	65.5704	453
135.951	65.5704	453
136.93	65.5704	453
137.301	65.2809	451
136.129	64.2677	444
136.472	63.9782	442
136.183	63.3992	438
136.504	63.1097	436
136.816	62.8202	434
136.802	62.386	431
137.095	62.0965	429
138.022	62.0965	429
140.893	62.9649	435
143.789	63.8334	441
146.384	64.5572	446
147.018	64.4124	445
147.98	64.4124	445
148.941	64.4124	445
149.903	64.4124	445
151.543	64.7019	447
153.192	64.9914	449
154.163	64.9914	449
156.861	65.7151	454
155.756	64.8466	448
153.926	63.6887	440
154.877	63.6887	440
156.183	63.8334	441
156.423	63.5439	439
157.372	63.5439	439
158.682	63.6887	440
159.633	63.6887	440
159.489	63.2544	437
159.7	62.9649	435
159.532	62.5307	432
160.466	62.5307	432
161.4	62.5307	432
163.837	63.1097	436
164.401	62.9649	435
163.441	62.2412	430
163.989	62.0965	429
165.3	62.2412	430
168.936	63.2544	437
171.824	63.9782	442
173.953	64.4124	445
176.094	64.8466	448
175.876	64.4124	445
175.646	63.9782	442
175.004	63.3992	438
175.95	63.3992	438
177.301	63.5439	439
177.032	63.1097	436
177.974	63.1097	436
179.327	63.2544	437
183.16	64.2677	444
185.778	64.8466	448
186.33	64.7019	447
186.458	64.4124	445
187.841	64.5572	446
189.652	64.8466	448
191.046	64.9914	449
190.734	64.5572	446
189.549	63.8334	441
188.342	63.1097	436
191.021	63.6887	440
194.154	64.4124	445
197.746	65.2809	451
199.162	65.4256	452
197.925	64.7019	447
198.447	64.5572	446
201.199	65.1361	450
203.07	65.4256	452
204.499	65.5704	453
206.385	65.8599	455
209.192	66.4389	459
210.184	66.4389	459
209.796	66.0046	456
207.546	64.9914	449
208.517	64.9914	449
209.954	65.1361	450
209.989	64.8466	448
209.545	64.4124	445
208.615	63.8334	441
210.519	64.1229	443
213.863	64.8466	448
216.27	65.2809	451
216.763	65.1361	450
216.285	64.7019	447
217.737	64.8466	448
218.705	64.8466	448
220.164	64.9914	449
222.12	65.2809	451
224.084	65.5704	453
227.547	66.2941	458
232.03	67.3074	465
234.539	67.7416	468
231.524	66.5836	460
228.98	65.5704	453
228.944	65.2809	451
229.919	65.2809	451
230.382	65.1361	450
229.813	64.7019	447
230.779	64.7019	447
232.264	64.8466	448
233.753	64.9914	449
236.292	65.4256	452
235.694	64.9914	449
232.448	63.8334	441
234.989	64.2677	444
237.543	64.7019	447
238.509	64.7019	447
240.011	64.8466	448
240.98	64.8466	448
241.948	64.8466	448
241.29	64.4124	445
243.341	64.7019	447
243.76	64.5572	446
243.627	64.2677	444
242.934	63.8334	441
242.782	63.5439	439
246.507	64.2677	444
249.696	64.8466	448
250.664	64.8466	448
252.194	64.9914	449
253.729	65.1361	450
254.136	64.9914	449
253.402	64.5572	446
253.795	64.4124	445
254.757	64.4124	445
253.995	63.9782	442
253.797	63.6887	440
253.59	63.3992	438
253.956	63.2544	437
255.484	63.3992	438
257.602	63.6887	440
256.79	63.2544	437
258.914	63.5439	439
258.088	63.1097	436
256.654	62.5307	432
254.606	61.807	427
256.726	62.0965	429
260.056	62.6754	433
262.8	63.1097	436
265.557	63.5439	439
265.899	63.3992	438
265.628	63.1097	436
265.959	62.9649	435
266.286	62.8202	434
267.224	62.8202	434
266.308	62.386	431
268.48	62.6754	433
267.549	62.2412	430
269.728	62.5307	432
272.541	62.9649	435
-352.53	70.2223	478
-351.497	70.2223	478
-358.529	71.8383	489
-360.396	72.4259	493
-360.788	72.7197	495
-357.537	72.279	492
-356.474	72.279	492
-356.133	72.4259	493
-357.228	72.8666	496
-358.31	73.3073	499
-355.083	72.8666	496
-351.87	72.4259	493
-350.804	72.4259	493
-346.901	71.8383	489
-343.722	71.3975	486
-341.261	71.1037	484
-334.591	69.9284	476
-336.366	70.5161	480
-335.328	70.5161	480
-334.987	70.663	481
-335.335	70.9568	483
-334.983	71.1037	484
-332.557	70.8099	482
-331.515	70.8099	482
-330.473	70.8099	482
-328.748	70.663	481
-329.071	70.9568	483
-326.668	70.663	481
-323.598	70.2223	478
-322.564	70.2223	478
-322.876	70.5161	480
-321.839	70.5161	480
-324.143	71.2506	485
-327.091	72.1321	491
-327.358	72.4259	493
-321.659	71.3975	486
-317.97	70.8099	482
-319.558	71.3975	486
-322.44	72.279	492
-321.376	72.279	492
-321.615	72.5728	494
-322.494	73.0135	497
-322.713	73.3073	499
-319.7	72.8666	496
-319.913	73.1604	498
-315.635	72.4259	493
-312.655	71.9852	490
-311.596	71.9852	490
-312.438	72.4259	493
-311.372	72.4259	493
-312.824	73.0135	497
-312.377	73.1604	498
-310.05	72.8666	496
-307.732	72.5728	494
-304.802	72.1321	491
-301.266	71.5444	487
-303.296	72.279	492
-302.232	72.279	492
-296.884	71.2506	485
-295.225	71.1037	484
-293.571	70.9568	483
-292.527	70.9568	483
-294.5	71.6913	488
-294.648	71.9852	490
-293.589	71.9852	490
-292.53	71.9852	490
-292.065	72.1321	491
-291.596	72.279	492
-288.761	71.8383	489
-286.528	71.5444	487
-283.716	71.1037	484
-280.334	70.5161	480
-276.969	69.9284	476
-273.041	69.1939	471
-272.023	69.1939	471
-274.457	70.0754	477
-276.292	70.8099	482
-275.821	70.9568	483
-273.639	70.663	481
-272.6	70.663	481
-269.866	70.2223	478
-269.395	70.3692	479
-268.36	70.3692	479
-266.208	70.0754	477
-265.733	70.2223	478
-265.253	70.3692	479
-265.873	70.8099	482
-267.578	71.5444	487
-267.62	71.8383	489
-267.108	71.9852	490
-264.42	71.5444	487
-261.745	71.1037	484
-258.544	70.5161	480
-256.97	70.3692	479
-256.469	70.5161	480
-252.77	69.7815	475
-249.093	69.047	470
-247.022	68.7532	468
-244.433	68.3125	465
-246.045	69.047	470
-246.072	69.3408	472
-246.609	69.7815	475
-246.099	69.9284	476
-246.1	70.2223	478
-242.503	69.4877	473
-241.992	69.6346	474
-239.95	69.3408	472
-239.436	69.4877	473
-238.918	69.6346	474
-237.893	69.6346	474
-234.869	69.047	470
-234.848	69.3408	472
-234.819	69.6346	474
-235.274	70.0754	477
-236.207	70.663	481
-234.19	70.3692	479
-230.72	69.6346	474
-227.273	68.9001	469
-225.294	68.6063	467
-224.284	68.6063	467
-223.753	68.7532	468
-224.169	69.1939	471
-224.572	69.6346	474
-224.019	69.7815	475
-222.523	69.6346	474
-221.031	69.4877	473
-219.544	69.3408	472
-218.523	69.3408	472
-218.424	69.6346	474
-217.4	69.6346	474
-216.832	69.7815	475
-215.805	69.7815	475
-213.874	69.4877	473
-212.851	69.4877	473
-210.933	69.1939	471
-209.469	69.047	470
-209.784	69.4877	473
-209.203	69.6346	474
-207.3	69.3408	472
-203.657	68.4594	466
-197.431	66.6965	454
-196.017	66.5496	453
-198.052	67.5779	460
-200.484	68.7532	468
-202.03	69.6346	474
-203.126	70.3692	479
-200.403	69.7815	475
-196.438	68.7532	468
-193.756	68.1655	464
-192.753	68.1655	464
-192.576	68.4594	466
-193.213	69.047	470
-192.606	69.1939	471
-190.368	68.7532	468
-186.928	67.8717	462
-185.125	67.5779	460
-184.931	67.8717	462
-184.728	68.1655	464
-183.329	68.0186	463
-183.51	68.4594	466
-183.286	68.7532	468
-180.716	68.1655	464
-177.389	67.2841	458
-175.244	66.8434	455
-176.175	67.5779	460
-177.847	68.6063	467
-178.73	69.3408	472
-178.087	69.4877	473
-177.064	69.4877	473
-174.925	69.047	470
-172.429	68.4594	466
-169.582	67.7248	461
-166.757	66.9903	456
-165.044	66.6965	454
-163.34	66.4026	452
-163.8	66.9903	456
-164.957	67.8717	462
-165.377	68.4594	466
-162.959	67.8717	462
-160.558	67.2841	458
-159.22	67.1372	457
-159.271	67.5779	460
-159.308	68.0186	463
-158.991	68.3125	465
-157.986	68.3125	465
-155.631	67.7248	461
-153.963	67.431	459
-152.638	67.2841	458
-151.648	67.2841	458
-151.644	67.7248	461
-149.994	67.431	459
-148.677	67.2841	458
-148.332	67.5779	460
-148.299	68.0186	463
-147.934	68.3125	465
-147.245	68.4594	466
-145.61	68.1655	464
-143.984	67.8717	462
-142.675	67.7248	461
-141.679	67.7248	461
-142.818	68.7532	468
-141.504	68.6063	467
-139.291	68.0186	463
-137.693	67.7248	461
-135.807	67.2841	458
-135.405	67.5779	460
-134.995	67.8717	462
-133.416	67.5779	460
-131.271	66.9903	456
-129.713	66.6965	454
-128.448	66.5496	453
-127.469	66.5496	453
-126.49	66.5496	453
-126.065	66.8434	455
-126.456	67.5779	460
-126.825	68.3125	465
-125.279	68.0186	463
-123.473	67.5779	460
-123.011	67.8717	462
-122.012	67.8717	462
-120.751	67.7248	461
-119.755	67.7248	461
-117.985	67.2841	458
-116.995	67.2841	458
-116.259	67.431	459
-115.769	67.7248	461
-114.274	67.431	459
-112.788	67.1372	457
-112.045	67.2841	458
-111.297	67.431	459
-110.065	67.2841	458
-108.837	67.1372	457
-108.321	67.431	459
-108.03	67.8717	462
-107.726	68.3125	465
-107.18	68.6063	467
-106.625	68.9001	469
-104.936	68.4594	466
-103.259	68.0186	463
-100.933	67.1372	457
-99.9455	67.1372	457
-98.741	66.9903	456
-98.184	67.2841	458
-97.4062	67.431	459
-96.624	67.5779	460
-95.8375	67.7248	461
-95.4582	68.1655	464
-94.048	67.8717	462
-91.0352	66.4026	452
-89.0619	65.6681	447
-87.7015	65.3743	445
-86.7395	65.3743	445
-86.7413	66.1088	450
-86.5309	66.6965	454
-85.9264	66.9903	456
-85.6857	67.5779	460
-85.4278	68.1655	464
-84.6067	68.3125	465
-83.4217	68.1655	464
-82.0634	67.8717	462
-80.5383	67.431	459
-79.8927	67.7248	461
-79.2384	68.0186	463
-78.5755	68.3125	465
-77.4035	68.1655	464
-75.4125	67.2841	458
-73.61	66.5496	453
-72.1497	66.1088	450
-71.0188	65.9619	449
-70.0482	65.9619	449
-68.3083	65.2274	444
-67.9553	65.815	448
-67.2859	66.1088	450
-66.9026	66.6965	454
-66.0663	66.8434	455
-65.0828	66.8434	455
-64.0992	66.8434	455
-63.393	67.1372	457
-62.4051	67.1372	457
-60.8797	66.5496	453
-59.7682	66.4026	452
-59.0512	66.6965	454
-58.0698	66.6965	454
-56.7111	66.2557	451
-55.7362	66.2557	451
-55.3684	66.9903	456
-54.3826	66.9903	456
-52.9285	66.4026	452
-51.7215	66.1088	450
-50.9743	66.4026	452
-50.7715	67.431	459
-49.7793	67.431	459
-48.7871	67.431	459
-47.7948	67.431	459
-46.5987	67.1372	457
-45.1117	66.4026	452
-44.037	66.2557	451
-42.9666	66.1088	450
-41.7139	65.6681	447
-41.021	66.1088	450
-40.0483	66.1088	450
-38.815	65.6681	447
-38.1874	66.2557	451
-37.8726	67.431	459
-36.1572	66.1088	450
-35.028	65.815	448
-34.0596	65.815	448
-33.3866	66.4026	452
-32.6246	66.8434	455
-31.7801	67.1372	457
-30.7248	66.9903	456
-30.1956	68.0186	463
-28.6272	66.6965	454
-27.5849	66.5496	453
-26.6644	66.6965	454
-25.683	66.6965	454
-24.4839	66.1088	450
-23.3544	65.6681	447
-22.338	65.5212	446
-21.3739	65.5212	446
-20.4556	65.6681	447
-19.5329	65.815	448
-18.6059	65.9619	449
-17.2032	64.3459	438
-16.1821	64.0521	436
-15.1697	63.7583	434
-14.4283	64.6397	440
-13.6609	65.5212	446
-12.8107	66.1088	450
-11.8642	66.2557	451
-10.9134	66.4026	452
-9.91434	66.2557	451
-8.9394	66.2557	451
-7.92915	65.9619	449
-6.95854	65.9619	449
-6.0146	66.2557	451
-5.05084	66.4026	452
-3.9656	64.6397	440
-3.00759	64.4928	439
-2.09611	65.6681	447
-1.13741	66.1088	450
-0.1661	66.6965	454
0.800952	65.5212	446
1.74133	64.6397	440
2.67413	64.199	437
3.62708	64.3459	438
4.61568	64.9336	442
5.6846	66.2557	451
6.63	65.9619	449
7.61754	66.1088	450
8.49486	65.3743	445
9.39307	64.9336	442
10.2315	64.199	437
11.2017	64.3459	438
12.3427	65.3743	445
13.4542	66.1088	450
14.459	66.2557	451
15.1259	64.9336	442
16.045	64.7867	441
16.9984	64.7867	441
17.9924	64.9336	442
19.0336	65.2274	444
20.0384	65.3743	445
20.9532	65.2274	444
21.913	65.2274	444
22.8728	65.2274	444
23.9399	65.5212	446
24.9041	65.5212	446
25.6942	65.0805	443
26.712	65.2274	444
27.7341	65.3743	445
28.6316	65.2274	444
29.3915	64.7867	441
30.2072	64.4928	439
30.8013	63.7583	434
31.8857	64.0521	436
32.9035	64.199	437
35.4748	67.2841	458
36.226	66.8434	455
36.6371	65.815	448
37.2698	65.2274	444
38.0574	64.9336	442
39.2777	65.3743	445
40.2396	65.3743	445
41.109	65.2274	444
41.3108	64.0521	436
42.641	64.6397	440
43.6912	64.7867	441
45.1507	65.5212	446
46.5284	66.1088	450
47.6067	66.2557	451
48.1508	65.6681	447
48.7874	65.2274	444
49.4111	64.7867	441
50.4786	64.9336	442
52.0159	65.6681	447
52.9822	65.6681	447
53.8278	65.5212	446
54.3005	64.9336	442
55.006	64.6397	440
56.0843	64.7867	441
57.6843	65.5212	446
58.7799	65.6681	447
59.4789	65.3743	445
60.1692	65.0805	443
60.4369	64.3459	438
61.1035	64.0521	436
62.046	64.0521	436
63.2774	64.3459	438
65.1041	65.2274	444
67.5518	66.6965	454
68.5332	66.6965	454
69.3615	66.5496	453
70.1855	66.4026	452
71.0051	66.2557	451
71.3417	65.6681	447
72.1462	65.5212	446
73.1103	65.5212	446
74.4066	65.815	448
75.7116	66.1088	450
74.9802	64.6397	440
75.9314	64.6397	440
77.232	64.9336	442
78.1875	64.9336	442
78.7849	64.6397	440
79.9172	64.7867	441
81.0539	64.9336	442
82.1949	65.0805	443
81.2755	63.6114	433
82.0217	63.4645	432
83.1476	63.6114	433
83.6952	63.3176	431
85.6087	64.0521	436
86.7497	64.199	437
87.6944	64.199	437
87.2192	63.1707	430
87.3288	62.583	426
87.8353	62.2892	424
88.3332	61.9954	422
90.0914	62.583	426
91.6532	63.0237	429
93.6596	63.7583	434
95.6877	64.4928	439
96.8568	64.6397	440
97.1411	64.199	437
98.3102	64.3459	438
99.4836	64.4928	439
99.7463	64.0521	436
100.92	64.199	437
102.564	64.6397	440
104.456	65.2274	444
104.941	64.9336	442
103.98	63.7583	434
104.434	63.4645	432
105.124	63.3176	431
105.81	63.1707	430
107.236	63.4645	432
108.671	63.7583	434
110.872	64.4928	439
111.821	64.4928	439
112.513	64.3459	438
113.2	64.199	437
113.362	63.7583	434
112.72	62.8768	428
112.317	62.1423	423
114.035	62.583	426
115.765	63.0237	429
117.236	63.3176	431
118.168	63.3176	431
119.376	63.4645	432
120.31	63.4645	432
122.086	63.9052	435
122.461	63.6114	433
124.536	64.199	437
124.907	63.9052	435
124.69	63.3176	431
125.913	63.4645	432
128.022	64.0521	436
131.626	65.3743	445
133.184	65.6681	447
133.55	65.3743	445
134.21	65.2274	444
129.994	62.7299	427
129.997	62.2892	424
130.605	62.1423	423
132.452	62.583	426
135.252	63.4645	432
136.501	63.6114	433
136.167	63.0237	429
135.497	62.2892	424
135.77	61.9954	422
137.978	62.583	426
140.855	63.4645	432
143.43	64.199	437
144.375	64.199	437
143.989	63.6114	433
144.256	63.3176	431
147.209	64.199	437
147.814	64.0521	436
149.098	64.199	437
150.729	64.4928	439
150.987	64.199	437
151.584	64.0521	436
152.527	64.0521	436
154.525	64.4928	439
155.474	64.4928	439
154.998	63.9052	435
154.863	63.4645	432
156.518	63.7583	434
156.731	63.4645	432
157.299	63.3176	431
157.497	63.0237	429
157.686	62.7299	427
158.609	62.7299	427
159.532	62.7299	427
160.831	62.8768	428
161.756	62.8768	428
160.781	62.1423	423
161.695	62.1423	423
163.763	62.583	426
165.07	62.7299	427
166.382	62.8768	428
165.744	62.2892	424
172.163	64.3459	438
171.529	63.7583	434
170.878	63.1707	430
171.408	63.0237	429
173.138	63.3176	431
174.878	63.6114	433
175.408	63.4645	432
174.709	62.8768	428
175.634	62.8768	428
176.972	63.0237	429
179.558	63.6114	433
182.995	64.4928	439
183.944	64.4928	439
184.893	64.4928	439
186.689	64.7867	441
187.642	64.7867	441
187.74	64.4928	439
186.97	63.9052	435
187.478	63.7583	434
189.719	64.199	437
191.972	64.6397	440
195.116	65.3743	445
194.756	64.9336	442
194.383	64.4928	439
195.332	64.4928	439
191.81	63.0237	429
195.433	63.9052	435
196.825	64.0521	436
197.314	63.9052	435
199.165	64.199	437
201.026	64.4928	439
204.735	65.3743	445
203.848	64.7867	441
202.48	64.0521	436
202.489	63.7583	434
204.833	64.199	437
206.249	64.3459	438
207.669	64.4928	439
207.192	64.0521	436
209.567	64.4928	439
211.475	64.7867	441
214.355	65.3743	445
217.736	66.1088	450
217.737	65.815	448
219.682	66.1088	450
220.655	66.1088	450
222.612	66.4026	452
224.084	66.5496	453
227.051	67.1372	457
225.544	66.4026	452
223.013	65.3743	445
220.955	64.4928	439
217.354	63.1707	430
219.807	63.6114	433
220.233	63.4645	432
224.239	64.3459	438
223.129	63.7583	434
224.584	63.9052	435
225.005	63.7583	434
224.382	63.3176	431
225.314	63.3176	431
225.195	63.0237	429
226.65	63.1707	430
229.167	63.6114	433
232.229	64.199	437
234.774	64.6397	440
236.261	64.7867	441
236.139	64.4928	439
236.548	64.3459	438
237.494	64.3459	438
238.986	64.4928	439
241.028	64.7867	441
240.884	64.4928	439
241.282	64.3459	438
241.675	64.199	437
242.62	64.199	437
243.007	64.0521	436
245.629	64.4928	439
245.454	64.199	437
246.399	64.199	437
248.476	64.4928	439
251.697	65.0805	443
253.795	65.3743	445
254.757	65.3743	445
253.421	64.7867	441
252.644	64.3459	438
251.854	63.9052	435
250.469	63.3176	431
250.818	63.1707	430
251.747	63.1707	430
252.677	63.1707	430
253.017	63.0237	429
251.576	62.4361	425
248.93	61.5547	419
251.625	61.9954	422
254.931	62.583	426
256.452	62.7299	427
258.581	63.0237	429
260.113	63.1707	430
263.471	63.7583	434
263.8	63.6114	433
262.29	63.0237	429
259.536	62.1423	423
260.451	62.1423	423
258.894	61.5547	419
259.179	61.4078	418
264.438	62.4361	425
267.855	63.0237	429
271.288	63.6114	433
-345.155	69.7648	468
-344.143	69.7648	468
-351.197	71.4045	479
-355.278	72.448	486
-354.957	72.5971	487
-347.364	71.2555	478
-346.33	71.2555	478
-341.685	70.5101	473
-342.823	70.9573	476
-346.103	71.8517	482
-347.208	72.299	485
-344.019	71.8517	482
-342.977	71.8517	482
-339.097	71.2555	478
-335.942	70.8083	475
-332.8	70.361	472
-328.265	69.6157	467
-326.555	69.4666	466
-325.547	69.4666	466
-325.237	69.6157	467
-327.004	70.212	471
-330.139	71.1064	477
-329.108	71.1064	477
-326.013	70.6592	474
-324.988	70.6592	474
-321.23	70.0629	470
-321.576	70.361	472
-322.594	70.8083	475
-320.89	70.6592	474
-317.841	70.212	471
-315.477	69.9138	469
-314.463	69.9138	469
-311.444	69.4666	466
-311.103	69.6157	467
-311.422	69.9138	469
-312.393	70.361	472
-312.693	70.6592	474
-314.298	71.2555	478
-314.575	71.5536	480
-314.191	71.7027	481
-313.151	71.7027	481
-312.111	71.7027	481
-309.132	71.2555	478
-307.454	71.1064	477
-306.423	71.1064	477
-307.312	71.5536	480
-309.465	72.299	485
-310.96	72.8952	489
-311.17	73.1934	491
-310.109	73.1934	491
-308.418	73.0443	490
-303.595	72.1499	484
-302.549	72.1499	484
-303.372	72.5971	487
-294.249	70.6592	474
-293.843	70.8083	475
-295.282	71.4045	479
-294.861	71.5536	480
-291.374	70.9573	476
-290.955	71.1064	477
-290.532	71.2555	478
-289.499	71.2555	478
-285.448	70.5101	473
-285.027	70.6592	474
-285.201	70.9573	476
-286.56	71.5536	480
-287.306	72.0008	483
-285.67	71.8517	482
-284.628	71.8517	482
-282.997	71.7027	481
-280.785	71.4045	479
-276.83	70.6592	474
-272.896	69.9138	469
-270.143	69.4666	466
-269.135	69.4666	466
-271.005	70.212	471
-272.28	70.8083	475
-271.824	70.9573	476
-270.226	70.8083	475
-269.199	70.8083	475
-267.043	70.5101	473
-264.896	70.212	471
-262.197	69.7648	468
-262.86	70.212	471
-261.285	70.0629	470
-260.27	70.0629	470
-258.15	69.7648	468
-258.237	70.0629	470
-258.316	70.361	472
-258.931	70.8083	475
-257.904	70.8083	475
-256.877	70.8083	475
-253.696	70.212	471
-248.386	69.0194	463
-245.782	68.5722	460
-243.192	68.125	457
-243.264	68.4231	459
-244.383	69.0194	463
-243.907	69.1685	464
-242.381	69.0194	463
-241.901	69.1685	464
-241.937	69.4666	466
-239.378	69.0194	463
-237.348	68.7213	461
-239.427	69.6157	467
-241.481	70.5101	473
-242.492	71.1064	477
-239.942	70.6592	474
-236.901	70.0629	470
-236.889	70.361	472
-233.87	69.7648	468
-231.863	69.4666	466
-232.342	69.9138	469
-232.808	70.361	472
-232.77	70.6592	474
-231.745	70.6592	474
-229.747	70.361	472
-227.757	70.0629	470
-224.812	69.4666	466
-223.804	69.4666	466
-222.797	69.4666	466
-222.265	69.6157	467
-221.256	69.6157	467
-221.19	69.9138	469
-220.645	70.0629	470
-219.629	70.0629	470
-217.218	69.6157	467
-213.893	68.8703	462
-212.434	68.7213	461
-212.355	69.0194	463
-210.897	68.8703	462
-209.444	68.7213	461
-207.543	68.4231	459
-207.901	68.8703	462
-207.35	69.0194	463
-205.458	68.7213	461
-203.574	68.4231	459
-202.141	68.2741	458
-200.272	67.9759	456
-197.976	67.5287	453
-196.561	67.3796	452
-195.584	67.3796	452
-195.899	67.8269	455
-197.057	68.5722	460
-198.62	69.4666	466
-199.733	70.212	471
-198.293	70.0629	470
-194.339	69.0194	463
-192.085	68.5722	460
-189.845	68.125	457
-189.683	68.4231	459
-189.102	68.5722	460
-188.517	68.7213	461
-187.927	68.8703	462
-185.714	68.4231	459
-183.515	67.9759	456
-182.929	68.125	457
-182.34	68.2741	458
-182.141	68.5722	460
-181.541	68.7213	461
-180.153	68.5722	460
-179.548	68.7213	461
-178.164	68.5722	460
-176.399	68.2741	458
-175.026	68.125	457
-175.562	68.7213	461
-176.08	69.3176	465
-175.451	69.4666	466
-174.818	69.6157	467
-167.109	66.9324	449
-167.249	67.3796	452
-167.007	67.6778	454
-164.197	66.9324	449
-162.5	66.6343	447
-161.172	66.4852	446
-162.004	67.2306	451
-162.457	67.8269	455
-162.538	68.2741	458
-161.196	68.125	457
-159.506	67.8269	455
-157.478	67.3796	452
-158.232	68.125	457
-158.62	68.7213	461
-158.307	69.0194	463
-157.646	69.1685	464
-154.955	68.4231	459
-151.615	67.3796	452
-150.971	67.5287	453
-149.992	67.5287	453
-149.342	67.6778	454
-148.687	67.8269	455
-147.379	67.6778	454
-147.365	68.125	457
-147.338	68.5722	460
-146.98	68.8703	462
-145.665	68.7213	461
-142.472	67.6778	454
-140.244	67.0815	450
-140.818	67.8269	455
-140.757	68.2741	458
-140.987	68.8703	462
-139.383	68.5722	460
-136.282	67.5287	453
-135.602	67.6778	454
-135.213	67.9759	456
-134.228	67.9759	456
-132.95	67.8269	455
-132.256	67.9759	456
-132.422	68.5722	460
-132.285	69.0194	463
-129.866	68.2741	458
-128.313	67.9759	456
-126.769	67.6778	454
-125.234	67.3796	452
-124.531	67.5287	453
-124.916	68.2741	458
-125.008	68.8703	462
-124.278	69.0194	463
-121.946	68.2741	458
-121.22	68.4231	459
-121.013	68.8703	462
-120.015	68.8703	462
-118.243	68.4231	459
-116.995	68.2741	458
-116.259	68.4231	459
-115.266	68.4231	459
-113.029	67.6778	454
-111.801	67.5287	453
-110.332	67.2306	451
-110.085	67.6778	454
-109.104	67.6778	454
-107.408	67.2306	451
-106.197	67.0815	450
-106.627	67.9759	456
-106.8	68.7213	461
-106.262	69.0194	463
-105.489	69.1685	464
-103.134	68.2741	458
-101.921	68.125	457
-100.492	67.8269	455
-99.0707	67.5287	453
-98.0914	67.5287	453
-97.1122	67.5287	453
-96.3451	67.6778	454
-95.7838	67.9759	456
-94.7981	67.9759	456
-93.8123	67.9759	456
-90.7909	66.4852	446
-89.2226	66.038	443
-88.2649	66.038	443
-87.1102	65.8889	442
-86.3496	66.038	443
-85.7775	66.3362	445
-85.1968	66.6343	447
-85.3611	67.5287	453
-85.1269	68.125	457
-84.6913	68.5722	460
-83.8789	68.7213	461
-82.8824	68.7213	461
-81.5306	68.4231	459
-79.8365	67.8269	455
-79.1995	68.125	457
-78.5539	68.4231	459
-77.8996	68.7213	461
-76.7362	68.5722	460
-75.2479	68.125	457
-73.1225	67.0815	450
-71.9894	66.9324	449
-70.8606	66.7834	448
-69.1121	66.038	443
-68.1545	66.038	443
-67.3485	66.1871	444
-67.1364	66.9324	449
-66.6078	67.3796	452
-65.7759	67.5287	453
-64.7967	67.5287	453
-63.3948	67.0815	450
-62.5607	67.2306	451
-61.5858	67.2306	451
-60.6109	67.2306	451
-59.6359	67.2306	451
-58.661	67.2306	451
-57.4303	66.9324	449
-56.2082	66.6343	447
-55.3655	66.7834	448
-55.0041	67.5287	453
-53.7863	67.2306	451
-52.1088	66.3362	445
-50.917	66.038	443
-50.4104	66.6343	447
-50.4397	67.9759	456
-49.3455	67.8269	455
-48.2556	67.6778	454
-47.2742	67.6778	454
-46.2928	67.6778	454
-44.9121	67.0815	450
-43.7441	66.7834	448
-42.6801	66.6343	447
-41.7139	66.6343	447
-40.6564	66.4852	446
-39.6923	66.4852	446
-38.7282	66.4852	446
-38.1874	67.2306	451
-37.0475	66.9324	449
-35.8358	66.4852	446
-34.6371	66.038	443
-33.6795	66.038	443
-33.0911	66.7834	448
-32.4095	67.3796	452
-31.502	67.5287	453
-30.5901	67.6778	454
-29.6087	67.6778	454
-28.312	66.9324	449
-27.2196	66.6343	447
-26.3707	66.9324	449
-25.2304	66.4852	446
-24.1031	66.038	443
-23.0409	65.7399	441
-22.0375	65.5908	440
-20.9905	65.2927	438
-19.9979	65.1436	437
-19.0097	64.9945	436
-18.1915	65.4417	439
-17.1639	65.1436	437
-16.1821	64.9945	436
-15.3795	65.5908	440
-14.5923	66.3362	445
-13.6303	66.3362	445
-12.6399	66.1871	444
-11.6011	65.7399	441
-10.6478	65.7399	441
-9.73847	66.038	443
-8.76101	65.8889	442
-7.71724	65.1436	437
-6.78806	65.2927	438
-5.86791	65.5908	440
-4.8944	65.2927	438
-3.93856	65.1436	437
-2.97334	64.6964	434
-2.03984	64.8455	435
-1.11466	65.7399	441
-0.160978	65.5908	440
0.786585	65.2927	438
1.72154	64.8455	435
2.65577	64.6964	434
3.57739	64.3982	432
4.5217	64.5473	433
5.50814	65.1436	437
6.46757	65.2927	438
7.44826	65.5908	440
8.39941	65.5908	440
9.35057	65.5908	440
10.2315	65.1436	437
11.1506	64.9945	436
12.204	65.5908	440
13.2748	66.1871	444
14.1705	65.8889	442
15.0917	65.7399	441
15.9723	65.4417	439
16.8442	65.1436	437
17.9517	65.7399	441
18.905	65.7399	441
19.8583	65.7399	441
20.7644	65.5908	440
21.6662	65.4417	439
22.4092	64.8455	435
23.5105	65.2927	438
24.7366	66.038	443
25.9842	66.7834	448
26.9526	66.7834	448
27.5472	65.8889	442
28.4381	65.7399	441
29.1915	65.2927	438
29.8631	64.6964	434
30.0916	63.2057	424
30.935	63.0566	423
32.6024	64.5473	433
33.6933	64.8455	435
34.9521	65.4417	439
36.0647	65.7399	441
36.9341	65.5908	440
37.713	65.2927	438
38.9246	65.7399	441
39.9684	65.8889	442
40.7387	65.5908	440
41.3108	64.9945	436
41.8657	64.3982	432
42.9977	64.6964	434
44.0371	64.8455	435
45.5978	65.7399	441
46.7623	66.038	443
47.0736	65.1436	437
47.6886	64.6964	434
48.4027	64.3982	432
49.4508	64.5473	433
50.3868	64.5473	433
51.4414	64.6964	434
52.5002	64.8455	435
53.5634	64.9945	436
55.006	65.5908	440
56.2115	65.8889	442
57.4256	66.1871	444
58.2539	66.038	443
58.276	64.9945	436
59.4901	65.2927	438
60.299	65.1436	437
60.9633	64.8455	435
61.6191	64.5473	433
62.4106	64.3982	432
64.3709	65.4417	439
65.6175	65.7399	441
66.7217	65.8889	442
67.9835	66.1871	444
69.5644	66.7834	448
70.3754	66.6343	447
70.7033	66.038	443
71.3374	65.7399	441
72.6185	66.038	443
74.0744	66.4852	446
73.8608	65.4417	439
73.9578	64.6964	434
74.7234	64.5473	433
75.4847	64.3982	432
76.9492	64.8455	435
78.2477	65.1436	437
79.736	65.5908	440
79.5869	64.6964	434
79.9684	64.2492	431
79.9616	63.5038	426
80.6926	63.3548	425
81.8034	63.5038	426
82.7243	63.5038	426
83.0561	63.0566	423
83.5735	62.7585	421
85.8883	63.802	428
86.4079	63.5038	426
86.9188	63.2057	424
87.2138	62.7585	421
88.3332	62.9075	422
89.2455	62.9075	422
91.0123	63.5038	426
93.4438	64.5473	433
95.9056	65.5908	440
95.536	64.6964	434
95.8073	64.2492	431
96.5146	64.1001	430
96.5377	63.5038	426
97.2298	63.3548	425
98.3794	63.5038	426
99.9996	63.951	429
100.927	63.951	429
101.854	63.951	429
103.021	64.1001	430
103.226	63.6529	427
104.149	63.6529	427
104.826	63.5038	426
105.747	63.5038	426
106.167	63.2057	424
108.346	63.951	429
109.273	63.951	429
109.944	63.802	428
110.351	63.5038	426
111.011	63.3548	425
110.876	62.7585	421
111.255	62.4603	419
112.964	62.9075	422
114.146	63.0566	423
115.604	63.3548	425
116.797	63.5038	426
117.442	63.3548	425
118.918	63.6529	427
120.683	64.1001	430
121.046	63.802	428
121.402	63.5038	426
122.035	63.3548	425
123.822	63.802	428
124.456	63.6529	427
126.26	64.1001	430
127.485	64.2492	431
129.311	64.6964	434
128.148	63.6529	427
128.467	63.3548	425
128.776	63.0566	423
128.464	62.4603	419
129.061	62.3113	418
131.831	63.2057	424
134.313	63.951	429
135.24	63.951	429
135.215	63.5038	426
135.177	63.0566	423
135.448	62.7585	421
136.358	62.7585	421
138.899	63.5038	426
140.148	63.6529	427
142.062	64.1001	430
142.991	64.1001	430
142.917	63.6529	427
144.851	64.1001	430
142.051	62.4603	419
143.639	62.7585	421
146.952	63.802	428
149.26	64.3982	432
150.889	64.6964	434
151.477	64.5473	433
153.117	64.8455	435
154.058	64.8455	435
153.929	64.3982	432
153.07	63.6529	427
153.994	63.6529	427
154.917	63.6529	427
155.11	63.3548	425
154.927	62.9075	422
154.731	62.4603	419
155.637	62.4603	419
157.664	62.9075	422
160.079	63.5038	426
160.622	63.3548	425
159.64	62.6094	420
161.313	62.9075	422
161.841	62.7585	421
163.137	62.9075	422
165.604	63.5038	426
164.18	62.6094	420
167.053	63.3548	425
167.577	63.2057	424
166.506	62.4603	419
166.613	62.1622	417
168.72	62.6094	420
170.031	62.7585	421
170.941	62.7585	421
171.443	62.6094	420
170.71	62.0131	416
171.609	62.0131	416
172.923	62.1622	417
175.075	62.6094	420
176.821	62.9075	422
177.312	62.7585	421
179.069	63.0566	423
180.409	63.2057	424
183.891	64.1001	430
183.961	63.802	428
184.022	63.5038	426
185.811	63.802	428
190.227	64.9945	436
192.046	65.2927	438
192.112	64.9945	436
190.398	64.1001	430
188.658	63.2057	424
190.021	63.3548	425
192.737	63.951	429
195.019	64.3982	432
196.86	64.6964	434
198.254	64.8455	435
198.736	64.6964	434
198.754	64.3982	432
196.915	63.5038	426
196.442	63.0566	423
196.89	62.9075	422
199.209	63.3548	425
200.127	63.3548	425
201.519	63.5038	426
202.915	63.6529	427
205.27	64.1001	430
208.598	64.8455	435
211.465	65.4417	439
211.93	65.2927	438
213.363	65.4417	439
214.312	65.4417	439
214.28	65.1436	437
212.762	64.3982	432
211.223	63.6529	427
216.12	64.8455	435
218.059	65.1436	437
219.003	65.1436	437
216.928	64.2492	431
218.365	64.3982	432
219.299	64.3982	432
220.233	64.3982	432
218.095	63.5038	426
219.53	63.6529	427
218.388	63.0566	423
219.821	63.2057	424
218.655	62.6094	420
221.131	63.0566	423
222.571	63.2057	424
224.014	63.3548	425
227.05	63.951	429
229.572	64.3982	432
231.039	64.5473	433
231.439	64.3982	432
232.373	64.3982	432
233.307	64.3982	432
233.699	64.2492	431
234.63	64.2492	431
236.655	64.5473	433
235.945	64.1001	430
235.773	63.802	428
238.357	64.2492	431
239.844	64.3982	432
240.778	64.3982	432
241.152	64.2492	431
242.084	64.2492	431
244.143	64.5473	433
246.778	64.9945	436
249.425	65.4417	439
250.374	65.4417	439
249.033	64.8455	435
250.548	64.9945	436
250.336	64.6964	434
250.696	64.5473	433
249.307	63.951	429
248.485	63.5038	426
247.649	63.0566	423
247.388	62.7585	421
248.298	62.7585	421
246.841	62.1622	417
247.148	62.0131	416
249.24	62.3113	418
252.537	62.9075	422
254.651	63.2057	424
256.17	63.3548	425
255.879	63.0566	423
256.186	62.9075	422
255.271	62.4603	419
255.565	62.3113	418
256.469	62.3113	418
256.141	62.0131	416
257.04	62.0131	416
261.039	62.7585	421
264.438	63.3548	425
266.606	63.6529	427
270.662	64.3982	432
-339.255	69.5665	460
-338.26	69.5665	460
-343.865	70.9276	469
-346.506	71.6837	474
-346.21	71.835	475
-341.55	71.0788	470
-336.911	70.3227	465
-335.906	70.3227	465
-330.58	69.4153	459
-332.46	70.0202	463
-334.322	70.6251	467
-336.168	71.23	471
-335.15	71.23	471
-336.969	71.835	475
-333.82	71.3813	472
-330.685	70.9276	469
-324.048	69.7177	461
-320.248	69.1128	457
-319.26	69.1128	457
-320.362	69.5665	460
-323.533	70.4739	466
-328.062	71.6837	474
-326.348	71.5325	473
-323.95	71.23	471
-320.189	70.6251	467
-319.179	70.6251	467
-318.17	70.6251	467
-318.519	70.9276	469
-318.182	71.0788	470
-315.141	70.6251	467
-312.787	70.3227	465
-311.111	70.1714	464
-310.108	70.1714	464
-309.105	70.1714	464
-309.43	70.4739	466
-310.408	70.9276	469
-311.373	71.3813	472
-312.983	71.9862	476
-310.643	71.6837	474
-307.659	71.23	471
-306.641	71.23	471
-303.027	70.6251	467
-298.784	69.869	462
-300.364	70.4739	466
-301.926	71.0788	470
-304.751	71.9862	476
-306.274	72.5911	480
-306.509	72.8936	482
-304.833	72.7424	481
-303.793	72.7424	481
-300.236	72.1374	477
-297.323	71.6837	474
-296.298	71.6837	474
-290.913	70.6251	467
-289.903	70.6251	467
-288.275	70.4739	466
-287.884	70.6251	467
-287.489	70.7764	468
-285.253	70.4739	466
-282.416	70.0202	463
-281.415	70.0202	463
-280.414	70.0202	463
-280.017	70.1714	464
-280.818	70.6251	467
-281.006	70.9276	469
-281.784	71.3813	472
-282.548	71.835	475
-281.521	71.835	475
-278.132	71.23	471
-274.761	70.6251	467
-271.992	70.1714	464
-271.573	70.3227	465
-268.241	69.7177	461
-267.824	69.869	462
-267.403	70.0202	463
-266.977	70.1714	464
-267.694	70.6251	467
-268.398	71.0788	470
-267.382	71.0788	470
-264.665	70.6251	467
-263.656	70.6251	467
-262.084	70.4739	466
-260.516	70.3227	465
-259.511	70.3227	465
-257.95	70.1714	464
-255.286	69.7177	461
-252.634	69.264	458
-251.644	69.264	458
-252.843	69.869	462
-253.48	70.3227	465
-254.104	70.7764	468
-254.173	71.0788	470
-251.003	70.4739	466
-246.24	69.4153	459
