428.751	55.283	1281
436.573	55.9303	1296
440.052	56.0166	1298
439.446	55.5851	1288
436.394	54.8514	1271
435.686	54.4199	1261
438.412	54.4199	1261
443.237	54.6788	1267
447.384	54.8514	1271
453.319	55.2398	1280
458.224	55.4988	1286
459.928	55.3693	1283
462.341	55.3261	1282
464.024	55.1967	1279
468.979	55.4556	1285
472.491	55.5419	1287
475.642	55.5851	1288
477.312	55.4556	1285
480.464	55.4988	1286
483.619	55.5419	1287
483.756	55.2398	1280
490.324	55.6714	1290
491.966	55.5419	1287
482.062	54.1178	1254
485.546	54.2041	1256
489.427	54.3336	1259
493.322	54.463	1262
489.761	53.7725	1246
494.43	53.9883	1251
501.506	54.463	1262
507.83	54.8514	1271
516.603	55.4988	1286
523.422	55.9303	1296
521.351	55.4125	1284
515.554	54.5062	1263
523.619	55.0672	1276
532.153	55.6714	1290
533.698	55.5419	1287
523.974	54.2472	1257
512.445	52.7799	1223
506.666	51.9168	1203
512.23	52.2189	1210
524.206	53.1683	1232
522.593	52.7368	1222
-541.527	57.8706	1277
-548.048	58.8676	1299
-552.796	59.6833	1317
-556.212	60.3631	1332
-556.656	60.7256	1340
-559.545	61.3601	1354
-555.385	61.2241	1351
-551.238	61.0882	1348
-548.73	61.1335	1349
-549.86	61.5867	1359
-547.325	61.632	1360
-536.78	60.7709	1341
-522.733	59.502	1313
-529.002	60.5443	1336
-526.902	60.635	1338
-524.793	60.7256	1340
-518.78	60.3631	1332
-517.45	60.5443	1336
-517.643	60.9069	1344
-520.1	61.5413	1358
-516.402	61.4507	1356
-512.335	61.3148	1353
-504.892	60.7709	1341
-500.87	60.635	1338
-497.234	60.5443	1336
-494.716	60.5897	1337
-496.24	61.1335	1349
-500.272	61.9945	1368
-504.949	62.9462	1389
-501.223	62.8555	1387
-497.866	62.8102	1386
-489.514	62.1305	1371
-484.066	61.8132	1364
-480.765	61.7679	1363
-479.571	61.9945	1368
-476.265	61.9492	1367
-470.194	61.5413	1358
-462.442	60.9069	1344
-456.459	60.499	1335
-454.592	60.635	1338
-454.401	60.9975	1346
-453.839	61.3148	1353
-450.248	61.2241	1351
-443.023	60.635	1338
-436.841	60.1818	1328
-431.356	59.8193	1320
-428.827	59.8646	1321
-428.229	60.1818	1328
-429.202	60.7256	1340
-426.941	60.8163	1342
-423.408	60.7256	1340
-423.336	61.1335	1349
-416.056	60.499	1335
-414.099	60.635	1338
-413.973	61.0428	1347
-408.62	60.6803	1339
-403.604	60.3631	1332
-404.335	60.9069	1344
-407.104	61.7679	1363
-407.123	62.2211	1373
-405.332	62.4024	1377
-405.862	62.9462	1389
-402.279	62.8555	1387
-397.842	62.629	1382
-395.711	62.7649	1385
-396.971	63.4447	1400
-398.165	64.1244	1415
-394.548	64.0338	1413
-383.458	62.7196	1384
-376.343	62.0398	1369
-373.656	62.0852	1370
-375.024	62.8102	1386
-376.591	63.5806	1403
-374.623	63.7619	1407
-367.884	63.1275	1393
-359.635	62.2211	1373
-354.848	61.9039	1366
-355.244	62.493	1379
-350.73	62.2211	1373
-349.282	62.493	1379
-348.812	62.9462	1389
-351.287	63.9432	1411
-350.211	64.3057	1419
-347.633	64.3963	1421
-342.864	64.0791	1414
-341.249	64.351	1420
-333.416	63.4447	1400
-320.95	61.632	1360
-318.478	61.7226	1362
-325.495	63.6713	1405
-324.983	64.1698	1416
-325.787	64.9402	1433
-328.093	66.0278	1457
-328.289	66.7076	1472
-323.119	66.2997	1463
-317.988	65.8918	1454
-314.196	65.7559	1451
-311.702	65.8918	1454
-311.742	66.5716	1469
-312.138	67.342	1486
-314.33	68.5203	1512
-310.856	68.4749	1511
-307.59	68.4749	1511
-301.705	67.8858	1498
-295.678	67.2514	1484
-288.134	66.2544	1462
-283.024	65.8012	1452
-280.271	65.8918	1454
-280.368	66.6622	1471
-277.376	66.7076	1472
-274.567	66.7982	1474
-270.828	66.6622	1471
-267.102	66.5263	1468
-263.21	66.345	1464
-255.249	65.1214	1437
-252.494	65.2121	1439
-253.022	66.1637	1460
-252.776	66.9341	1477
-250.428	67.1607	1482
-250.394	68.0218	1501
-248.302	68.339	1508
-244.067	68.0671	1502
-242.102	68.4296	1510
-236.624	67.7952	1496
-230.27	66.8888	1476
-223.387	65.8012	1452
-218.883	65.3933	1443
-215.315	65.2574	1440
-212.644	65.3933	1443
-209.525	65.3933	1443
-207.693	65.8012	1452
-203.709	65.5293	1446
-198.363	64.8042	1430
-188.308	62.493	1379
-182.773	61.632	1360
-180.23	61.7679	1363
-179.365	62.493	1379
-179.454	63.5806	1403
-178.055	64.1698	1416
-176.477	64.7136	1428
-175.819	65.6199	1448
-174.358	66.2544	1462
-171.783	66.481	1467
-169.072	66.6622	1471
-165.103	66.345	1464
-161.164	66.0278	1457
-157.689	65.8918	1454
-153.589	65.484	1445
-151.298	65.8465	1453
-149.585	66.481	1467
-147.911	67.1607	1482
-145	67.2967	1485
-139.594	66.2544	1462
-134.754	65.4387	1444
-130.629	64.9402	1433
-127.443	64.8948	1432
-125.215	65.348	1442
-124.215	66.481	1467
-122.034	67.0248	1479
-118.515	66.8435	1475
-114.467	66.345	1464
-110.618	65.9371	1455
-106.217	65.1667	1438
-102.176	64.5776	1425
-99.6519	64.9402	1433
-97.8343	65.8012	1452
-94.7607	65.8465	1453
-90.8631	65.3027	1441
-88.1743	65.6199	1448
-85.514	65.9825	1456
-82.3666	65.9825	1456
-78.3486	65.2574	1440
-73.5116	63.7619	1407
-69.0175	62.4477	1378
-63.7863	60.3178	1331
-60.3141	59.7286	1318
-57.5958	59.8646	1321
-55.5275	60.7256	1340
-53.0236	61.1788	1350
-50.031	61.0882	1348
-46.8025	60.6803	1339
-43.58	60.2271	1329
-40.4621	59.8646	1321
-37.5495	59.774	1319
-34.7771	59.9099	1322
-32.1608	60.3631	1332
-29.4352	60.6803	1339
-26.5804	60.7709	1341
-23.6638	60.7256	1340
-20.6896	60.499	1335
-17.8171	60.5443	1336
-14.9402	60.5897	1337
-12.0861	60.7709	1341
-9.18034	60.7256	1340
-6.27427	60.635	1338
-3.37431	60.499	1335
-0.488056	60.4537	1334
2.40106	60.5897	1337
5.29919	60.6803	1339
8.17537	60.5443	1336
11.0055	60.2271	1329
13.8262	60.0005	1324
16.7765	60.3178	1331
19.9195	61.1335	1349
22.8695	61.2241	1351
25.9046	61.496	1357
29.5393	62.9915	1390
33.3869	64.6229	1426
37.1089	65.7559	1451
40.4675	66.1184	1459
42.4853	64.3963	1421
44.9159	63.49	1401
49.5528	65.6199	1448
53.0105	66.0278	1457
54.8881	64.5323	1424
57.9664	64.5323	1424
60.9589	64.4417	1422
63.9428	64.351	1420
66.9181	64.2604	1418
69.8353	64.1244	1415
72.6366	63.8979	1410
75.3089	63.5806	1403
77.895	63.2181	1395
80.6786	63.0368	1391
84.1669	63.3994	1399
87.4404	63.5806	1403
90.2798	63.4447	1400
93.1063	63.3087	1397
95.9886	63.2181	1395
98.3654	62.8102	1386
101.727	63.0368	1391
104.659	62.9915	1390
107.586	62.9462	1389
111.305	63.354	1398
115.309	63.8979	1410
119.364	64.4417	1422
123.041	64.7589	1429
126.395	64.8948	1432
130.123	65.2121	1439
131.938	64.5776	1425
135.113	64.6229	1426
137.517	64.3057	1419
139.297	63.7166	1406
141.02	63.1275	1393
142.274	62.3571	1376
144.72	62.1305	1371
147.361	61.9945	1368
150.538	62.0852	1370
153.611	62.1305	1371
156.804	62.2211	1373
160.47	62.493	1379
163.451	62.493	1379
165.225	62.0398	1369
165.604	61.0882	1348
169.268	61.3601	1354
173.594	61.8586	1365
176.804	61.9492	1367
179.496	61.8586	1365
180.041	61.0428	1347
183.224	61.1335	1349
187.382	61.5413	1358
191.999	62.0852	1370
193.253	61.5413	1358
194.166	60.9069	1344
195.459	60.4084	1333
198.936	60.5897	1337
207.562	62.3117	1375
210.687	62.3571	1376
213.507	62.3117	1375
216.951	62.4477	1378
218.653	62.0852	1370
219.35	61.4507	1356
220.642	60.9975	1346
224.05	61.1335	1349
230.163	61.9945	1368
235.847	62.7196	1384
240.047	63.0368	1391
243.753	63.2181	1395
246.238	63.0821	1392
247.993	62.7649	1385
248.813	62.2211	1373
251.047	62.0398	1369
254.749	62.2211	1373
269.917	65.1667	1438
270.368	64.5323	1424
270.182	63.7619	1407
267.98	62.5383	1380
261.146	60.2724	1330
263.227	60.0912	1326
267.699	60.4537	1334
273.219	61.0428	1347
276.541	61.1335	1349
280.907	61.4507	1356
286.56	62.0398	1369
291	62.3571	1376
295.897	62.7649	1385
298.028	62.5836	1381
299.705	62.3117	1375
302.898	62.3571	1376
308.54	62.9009	1388
315.58	63.7166	1406
321.792	64.351	1420
306.331	60.6803	1339
310.149	60.8616	1343
314.218	61.0882	1348
315.72	60.8163	1342
316.01	60.3178	1331
316.731	59.9099	1322
315.962	59.2301	1307
319.275	59.3208	1309
325.55	59.9552	1323
330.644	60.3631	1332
325.01	58.8223	1298
325.291	58.3691	1288
327.82	58.3238	1287
334.199	58.9582	1301
340.897	59.638	1316
346.353	60.0912	1326
351.063	60.4084	1333
353.679	60.3631	1332
357.897	60.5897	1337
359.978	60.4537	1334
362.59	60.4084	1333
366.568	60.5897	1337
371.392	60.9069	1344
373.184	60.7256	1340
375.519	60.635	1338
377.846	60.5443	1336
375.889	59.774	1319
379.889	59.9552	1323
386.799	60.5897	1337
392.313	60.9975	1346
392.58	60.5897	1337
391.329	59.9552	1323
388.23	59.0489	1303
388.346	58.641	1294
388.725	58.2785	1286
392.113	58.3691	1288
397.044	58.6863	1295
397.991	58.4144	1289
398.912	58.1425	1283
402.624	58.2785	1286
411.079	59.0942	1304
415.802	59.3661	1310
419.273	59.4567	1312
418.57	58.9582	1301
420.411	58.8223	1298
419.63	58.3238	1287
422.741	58.3691	1288
426.516	58.5051	1291
427.977	58.3238	1287
430.759	58.3238	1287
432.867	58.2332	1285
435.645	58.2332	1285
439.446	58.3691	1288
440.514	58.1425	1283
438.796	57.5534	1270
442.237	57.644	1272
449.184	58.1878	1284
455.128	58.5957	1293
457.569	58.5504	1292
458.58	58.3238	1287
459.211	58.0519	1281
460.177	57.8253	1276
460.396	57.5081	1269
463.869	57.5987	1271
469.554	57.9612	1279
474.534	58.2332	1285
478.426	58.3691	1288
481.584	58.4144	1289
478.358	57.6893	1273
474.685	56.9189	1256
471.699	56.2392	1241
470.941	55.8313	1232
478.218	56.3751	1244
484.386	56.783	1253
490.982	57.2362	1263
498.403	57.78	1275
504.697	58.1878	1284
510.635	58.5504	1292
514.222	58.641	1294
516.62	58.5957	1293
522.227	58.9129	1300
526.653	59.0942	1304
520.539	58.0972	1282
510.248	56.647	1250
512.95	56.647	1250
521.427	57.2815	1264
527.063	57.5987	1271
529.393	57.5534	1270
526.692	56.9643	1257
518.458	55.786	1231
517.31	55.3781	1222
516.122	54.9703	1213
514.04	54.4718	1202
508.042	53.5654	1182
-545.344	61.0582	1286
-549.314	61.8178	1302
-562.45	63.622	1340
-565.399	64.2868	1354
-566.626	64.7615	1364
-561.611	64.5241	1359
-554.563	64.0494	1349
-551.647	64.0494	1349
-550.357	64.2393	1353
-548.242	64.3342	1355
-542.093	63.9544	1347
-534.778	63.4321	1336
-534.279	63.717	1342
-537.317	64.4292	1357
-543.047	65.4737	1379
-541.241	65.6162	1382
-530.464	64.6666	1362
-523.647	64.1918	1352
-524.961	64.7141	1363
-522.781	64.809	1365
-519.449	64.7615	1364
-515.743	64.6666	1362
-508.657	64.1443	1351
-504.239	63.9544	1347
-498.35	63.5746	1339
-495.826	63.622	1340
-493.297	63.6695	1341
-494.421	64.1918	1352
-497.678	64.9989	1369
-496.887	65.2838	1375
-497.507	65.7586	1385
-489.514	65.0939	1371
-484.421	64.809	1365
-480.412	64.6666	1362
-477.818	64.7141	1363
-476.265	64.904	1367
-471.925	64.7141	1363
-466.915	64.4292	1357
-462.613	64.2393	1353
-461.048	64.4292	1357
-461.828	64.9515	1368
-460.212	65.1414	1372
-456.247	64.9989	1369
-449.976	64.5241	1359
-442.104	63.812	1344
-436.911	63.4796	1337
-433.047	63.3372	1334
-432.421	63.6695	1341
-434.967	64.4767	1358
-433.622	64.7141	1363
-430.992	64.7615	1364
-424.591	64.2393	1353
-420.42	64.0494	1349
-413.48	63.4321	1336
-406.904	62.8624	1324
-401.906	62.53	1317
-396.332	62.1027	1308
-390.797	61.6754	1299
-389.781	61.9603	1305
-390.814	62.5775	1318
-395.03	63.717	1342
-397.388	64.5716	1360
-399.959	65.4737	1379
-393.812	64.9515	1368
-387.711	64.4292	1357
-385.345	64.5241	1359
-384.096	64.809	1365
-383.937	65.2838	1375
-379.857	65.0939	1371
-376.893	65.0939	1371
-376.657	65.5687	1381
-375.295	65.8536	1387
-369.881	65.4262	1378
-362.642	64.6666	1362
-360.226	64.7615	1364
-354.396	64.2393	1353
-349.393	63.8594	1345
-347.516	64.0494	1349
-345.877	64.2868	1354
-340.67	63.8594	1345
-338.014	63.9069	1346
-338.59	64.5716	1360
-337.131	64.8565	1366
-336.38	65.2838	1375
-332.68	65.1414	1372
-330.435	65.2838	1375
-322.223	64.2393	1353
-319.534	64.2868	1354
-315.906	64.1443	1351
-315.302	64.6191	1361
-314.884	65.1414	1372
-313.965	65.5687	1381
-307.602	64.8565	1366
-304.649	64.8565	1366
-299.487	64.3817	1356
-293.932	63.812	1344
-289.727	63.5271	1338
-288.121	63.812	1344
-286.913	64.1918	1352
-286.091	64.6666	1362
-287.097	65.5687	1381
-282.466	65.1889	1373
-279.905	65.2838	1375
-276.53	65.1889	1373
-272.964	65.0464	1370
-269.411	64.904	1367
-267.236	65.0939	1371
-265.814	65.4737	1379
-265.12	66.0435	1391
-261.548	65.901	1388
-254.449	64.8565	1366
-245.605	63.3372	1334
-241.993	63.1473	1330
-239.478	63.2422	1332
-236.776	63.2897	1333
-236.702	64.0494	1349
-236.732	64.8565	1366
-234.121	64.9515	1368
-230.826	64.8565	1366
-228.541	65.0464	1370
-226.402	65.2838	1375
-221.155	64.6191	1361
-215.968	63.9544	1347
-211	63.3372	1334
-208.272	63.3846	1335
-208.156	64.2393	1353
-208.416	65.2363	1374
-205.147	65.1414	1372
-201.445	64.904	1367
-197.763	64.6666	1362
-196.25	65.1414	1372
-192.438	64.8565	1366
-187.544	64.1918	1352
-178.886	62.1977	1310
-175.247	61.9128	1304
-173.486	62.2926	1312
-171.951	62.7674	1322
-169.988	63.0998	1329
-166.864	63.0048	1327
-163.748	62.9099	1325
-161.491	63.1473	1330
-159.57	63.5271	1338
-158.317	64.1918	1352
-157.233	64.9515	1368
-156.193	65.7586	1385
-154.416	66.2809	1396
-150.639	65.9485	1389
-146.893	65.6162	1382
-143.176	65.2838	1375
-141.02	65.6636	1383
-139.727	66.4708	1400
-137.872	67.0405	1412
-130.809	65.0464	1370
-126.915	64.5716	1360
-124.431	64.809	1365
-122.637	65.4262	1378
-120.439	65.8536	1387
-117.78	66.0435	1391
-114.69	65.996	1390
-111.605	65.9485	1389
-108.446	65.8536	1387
-105.22	65.7111	1384
-101.933	65.5212	1380
-98.7343	65.3788	1377
-95.4099	65.1414	1372
-92.1745	64.9515	1368
-89.4129	65.0939	1371
-85.7556	64.5716	1360
-82.3285	64.1918	1352
-79.4059	64.1918	1352
-76.9358	64.5716	1360
-74.4856	64.9989	1369
-71.5262	64.9989	1369
-67.9658	64.4292	1357
-65.4157	64.809	1365
-62.1904	64.5241	1359
-58.9474	64.1918	1352
-55.7347	63.8594	1345
-52.4737	63.4321	1336
-49.5114	63.3372	1334
-46.7675	63.5271	1338
-43.9407	63.622	1340
-41.4116	64.1918	1352
-38.7736	64.6666	1362
-36.0398	65.0464	1370
-32.9817	64.8565	1366
-29.8309	64.4292	1357
-26.7587	64.0968	1350
-23.7875	63.9544	1347
-20.9376	64.1443	1351
-18.0571	64.2868	1354
-15.119	64.2393	1353
-12.1852	64.1918	1352
-9.26256	64.1918	1352
-6.33523	64.1443	1351
-3.40717	64.0019	1348
-0.493543	64.0494	1349
2.42441	64.0968	1350
5.33085	63.9544	1347
8.16313	63.3372	1334
10.9309	62.6725	1320
13.8157	62.8149	1323
16.7891	63.2422	1332
19.8162	63.717	1342
22.9373	64.3342	1355
25.8855	64.3817	1356
28.753	64.2393	1353
31.7949	64.4767	1358
35.1397	65.2363	1374
38.304	65.5687	1381
41.0801	65.2363	1374
44.0182	65.1889	1373
47.1231	65.3788	1377
49.9543	65.1889	1373
52.6525	64.8565	1366
55.4833	64.7141	1363
58.4726	64.7615	1364
61.5112	64.8565	1366
64.3225	64.7141	1363
66.9235	64.3817	1356
69.3911	63.9544	1347
73.1618	64.7141	1363
76.3315	64.904	1367
78.8226	64.5241	1359
81.6401	64.4292	1357
83.9503	63.9544	1347
86.6041	63.7645	1343
89.9739	64.0968	1350
93.2362	64.3342	1355
95.7395	64.0494	1349
97.9243	63.5746	1339
100.141	63.1473	1330
103.249	63.2897	1333
106.369	63.4321	1336
109.83	63.7645	1343
113.74	64.3342	1355
117.875	64.9989	1369
122.158	65.7111	1384
125.692	65.996	1390
128.327	65.8061	1386
129.902	65.0939	1371
130.636	64.0019	1348
132.56	63.5271	1338
134.845	63.2422	1332
138.034	63.3846	1335
141.131	63.4796	1337
144.129	63.5271	1338
148.56	64.1918	1352
152.267	64.5241	1359
157.146	65.3313	1376
160.586	65.5212	1380
160.843	64.4292	1357
163.897	64.4767	1358
167.079	64.5716	1360
170.769	64.8565	1366
174.357	65.0939	1371
176.933	64.9515	1368
179.101	64.6666	1362
180.174	64.0019	1348
182.409	63.7645	1343
185.174	63.717	1342
188.216	63.7645	1343
190.407	63.5271	1338
191.71	63.0048	1327
192.966	62.4825	1316
195.811	62.4825	1316
200.467	63.0523	1328
202.419	62.7674	1322
206.364	63.0998	1329
210.182	63.3846	1335
213.706	63.5746	1339
216.762	63.622	1340
219.003	63.4321	1336
221.061	63.1947	1331
222.592	62.8149	1323
225.111	62.7199	1321
228.312	62.8149	1323
236.239	64.1918	1352
240.931	64.6666	1362
242.98	64.4292	1357
243.738	63.8594	1345
244.996	63.4321	1336
247.141	63.2422	1332
251.147	63.5271	1338
254.039	63.5271	1338
256.74	63.4796	1337
256.329	62.6725	1320
257.808	62.3401	1313
259.852	62.1502	1309
264.086	62.4825	1316
269.365	63.0523	1328
272.031	63.0048	1327
274.9	63.0048	1327
278.396	63.1473	1330
282.54	63.4321	1336
286.71	63.717	1342
288.101	63.3846	1335
292.076	63.622	1340
294.973	63.622	1340
294.535	62.9099	1325
296.951	62.8149	1323
298.678	62.5775	1318
301.755	62.625	1319
305.992	62.9099	1325
308.857	62.9099	1325
309.839	62.53	1317
311.024	62.1977	1310
312.418	61.9128	1304
313.787	61.6279	1298
315.617	61.438	1294
318.66	61.4855	1295
322.453	61.6754	1299
326.513	61.9128	1304
329.079	61.8653	1303
332.66	62.0078	1306
336.254	62.1502	1309
341.415	62.5775	1318
346.353	62.9573	1326
349.22	62.9573	1326
352.617	63.0523	1328
356.827	63.2897	1333
359.438	63.2422	1332
359.598	62.7674	1322
361.084	62.53	1317
364.484	62.625	1319
367.335	62.625	1319
369.345	62.4825	1316
370.775	62.2451	1311
371.33	61.8653	1303
374.721	61.9603	1305
378.12	62.0552	1307
380.071	61.9128	1304
379.66	61.3905	1293
381.568	61.2481	1290
384.059	61.2006	1289
385.645	61.0107	1285
389.329	61.1531	1288
390.591	60.9157	1283
393.365	60.9157	1283
398.3	61.2481	1290
400.466	61.1531	1288
403.251	61.1531	1288
407.611	61.3905	1293
412.311	61.6754	1299
416.397	61.8653	1303
413.744	61.0582	1286
413.285	60.5834	1276
418.652	60.9632	1284
423.069	61.2006	1289
427.177	61.3905	1293
429.307	61.2956	1291
429.085	60.8683	1282
428.151	60.346	1271
434.967	60.9157	1283
440.811	61.343	1292
443.947	61.3905	1293
443.978	61.0107	1285
445.366	60.8208	1281
448.485	60.8683	1282
450.904	60.8208	1281
454.027	60.8683	1282
457.511	60.9632	1284
460.645	61.0107	1285
461.981	60.8208	1281
462.21	60.4884	1274
463.139	60.251	1269
465.148	60.1561	1267
466.779	60.0136	1264
469.14	59.9661	1263
472.991	60.1086	1266
478.734	60.4884	1274
480.354	60.346	1271
481.962	60.2035	1268
483.556	60.0611	1265
484.368	59.8237	1260
487.865	59.9187	1262
490.982	59.9661	1263
496.84	60.346	1271
504.697	60.9632	1284
509.844	61.2481	1290
511.441	61.1056	1287
510.627	60.6783	1278
512.988	60.6309	1277
516.152	60.6783	1278
517.697	60.5359	1275
519.228	60.3935	1272
524.03	60.6309	1277
528.44	60.8208	1281
532.868	61.0107	1285
531.894	60.5834	1276
527.949	59.8237	1260
523.513	59.0166	1243
519.85	58.3044	1228
527.185	58.8266	1239
521.31	57.8771	1219
508.042	56.1203	1182
-548.312	64.1854	1293
-559.018	65.7738	1325
-564.548	66.7667	1345
-570.828	67.8588	1367
-567.457	67.8091	1366
-558.305	67.0645	1351
-552.507	66.717	1344
-556.145	67.5113	1360
-557.273	68.0077	1370
-554.716	68.0573	1371
-544.91	67.2134	1354
-537.58	66.6674	1343
-531.492	66.2703	1335
-534.942	67.0645	1351
-540.685	68.1566	1373
-541.241	68.6034	1382
-539.812	68.8019	1386
-532.555	68.2559	1375
-526.116	67.8091	1366
-522.781	67.7595	1365
-521.734	68.0077	1370
-516.5	67.7098	1364
-512.799	67.6106	1362
-507.608	67.3127	1356
-502.072	66.9652	1349
-498.046	66.8163	1346
-493.665	66.6177	1342
-490.764	66.6177	1342
-490.771	67.0149	1350
-491.466	67.5113	1360
-489.604	67.6602	1363
-487.729	67.8091	1366
-483.356	67.6106	1362
-478.648	67.3624	1357
-475.364	67.3127	1356
-472.085	67.2631	1355
-470.54	67.4616	1359
-469.323	67.7098	1364
-469.452	68.1566	1373
-468.522	68.4544	1379
-466.554	68.6034	1382
-464.237	68.7027	1384
-459.913	68.5041	1380
-452.294	67.8091	1366
-444.407	67.0645	1351
-439.852	66.8163	1346
-433.696	66.3199	1336
-431.131	66.3695	1337
-430.483	66.717	1344
-432.349	67.4616	1359
-429.096	67.412	1358
-426.788	67.5113	1360
-421.978	67.2134	1354
-416.884	66.8659	1347
-412.436	66.6177	1342
-408.009	66.3695	1337
-408.452	66.9156	1348
-405.839	66.9652	1349
-401.429	66.717	1344
-400.303	67.0149	1350
-398.857	67.2631	1355
-397.973	67.6106	1362
-397.929	68.107	1372
-394.099	67.958	1369
-391.14	67.958	1369
-386.763	67.7098	1364
-380.719	67.1638	1353
-376.398	66.9156	1348
-369.605	66.2206	1334
-369.196	66.6674	1343
-370.929	67.5113	1360
-371.507	68.1566	1373
-366.123	67.7098	1364
-359.713	67.0645	1351
-354.151	66.5681	1341
-349.419	66.2206	1334
-346.795	66.2703	1335
-347.001	66.8659	1347
-345.877	67.2134	1354
-336.111	65.8731	1327
-331.485	65.5257	1320
-328.88	65.5753	1321
-327.012	65.7738	1325
-324.637	65.8731	1327
-320.798	65.6746	1323
-318.9	65.8731	1327
-318.413	66.3695	1337
-315.286	66.3199	1336
-313.801	66.6177	1342
-315.302	67.5609	1361
-315.803	68.3055	1376
-312.828	68.3055	1376
-308.277	67.958	1369
-303.311	67.5113	1360
-299.046	67.2134	1354
-293.494	66.6177	1342
-290.16	66.5185	1340
-286.62	66.3695	1337
-283.518	66.3199	1336
-281.47	66.5185	1340
-283.147	67.6106	1362
-282.466	68.1566	1373
-282.348	68.8516	1387
-282.169	69.5465	1401
-279.738	69.6955	1404
-273.55	68.9012	1388
-267.236	68.0573	1371
-263.115	67.7595	1365
-261.118	68.0077	1370
-258.156	68.0077	1370
-252.587	67.3127	1356
-246.341	66.4192	1338
-243.449	66.4192	1338
-239.837	66.2206	1334
-235.888	65.9228	1328
-233.193	65.9724	1329
-232.226	66.5185	1340
-229.843	66.6674	1343
-226.264	66.4688	1339
-225.871	67.2134	1354
-226.567	68.3055	1376
-223.592	68.3055	1376
-218.373	67.6106	1362
-214.322	67.2631	1355
-209.989	66.8163	1346
-211.387	68.2062	1374
-207.506	67.9084	1368
-205.147	68.107	1372
-202.329	68.1566	1373
-199.506	68.2062	1374
-195.391	67.8091	1366
-189.339	66.717	1344
-185.879	66.5185	1340
-182.709	66.4192	1338
-179.279	66.2206	1334
-175.47	65.8731	1327
-172.731	65.9228	1328
-170.244	66.0717	1331
-169.002	66.717	1344
-166.961	67.0645	1351
-164.041	67.0645	1351
-160.166	66.6674	1343
-157.849	66.9156	1348
-157.463	68.0077	1370
-156.419	68.8516	1387
-154.084	69.1494	1393
-150.314	68.8019	1386
-145.723	68.0573	1371
-141.718	67.5609	1361
-138.063	67.2134	1354
-136.233	67.7595	1365
-133.576	67.9084	1368
-128.804	66.9652	1349
-125.701	66.8659	1347
-123.063	67.0149	1350
-121.302	67.6602	1363
-119.05	68.0573	1371
-115.832	67.9084	1368
-112.958	67.958	1369
-110.32	68.1566	1373
-107.977	68.5537	1381
-104.992	68.5537	1381
-101.268	68.0573	1371
-96.9417	67.1142	1352
-92.6978	66.171	1333
-89.0751	65.6249	1322
-87.8477	66.8659	1347
-85.2512	67.1142	1352
-82.4503	67.2134	1354
-79.3472	67.0645	1351
-76.5964	67.2134	1354
-73.9959	67.5113	1360
-70.5857	67.0645	1351
-67.4148	66.8163	1346
-64.0738	66.3695	1337
-61.0006	66.171	1333
-58.119	66.171	1333
-55.0303	65.9228	1328
-52.2773	66.0717	1331
-49.7712	66.5681	1341
-46.9772	66.717	1344
-44.2031	66.9156	1348
-41.4116	67.1142	1352
-38.6028	67.3127	1356
-35.5137	67.0149	1350
-32.4988	66.8163	1346
-29.5891	66.8163	1346
-26.7389	66.9652	1349
-23.8228	66.9652	1349
-20.9376	67.0645	1351
-18.0571	67.2134	1354
-15.1078	67.1142	1352
-12.2122	67.2631	1355
-9.2283	66.8659	1347
-6.31178	66.8163	1346
-3.41222	67.0149	1350
-0.493178	66.9156	1348
2.428	67.1142	1352
5.32689	66.8163	1346
8.16313	66.2206	1334
11.0055	65.9724	1329
13.8784	65.9724	1329
16.8521	66.3695	1337
19.9048	66.9156	1348
22.988	67.412	1358
26.0382	67.7098	1364
28.923	67.5609	1361
31.748	67.3127	1356
34.6026	67.1638	1353
37.6938	67.4616	1359
40.6017	67.412	1358
43.4732	67.3127	1356
46.4387	67.3624	1357
49.263	67.2134	1354
52.0743	67.0645	1351
54.6691	66.6674	1343
57.6152	66.717	1344
61.0159	67.2631	1355
63.8506	67.1638	1353
66.1338	66.5185	1340
69.0305	66.5185	1340
72.1419	66.717	1344
75.0472	66.717	1344
77.0826	65.9724	1329
79.775	65.8235	1326
82.9531	66.0717	1331
86.3462	66.4688	1339
89.7739	66.8659	1347
92.8922	67.0149	1350
95.6685	66.9156	1348
97.4856	66.171	1333
99.8401	65.8235	1326
102.861	65.9228	1328
105.971	66.0717	1331
109.584	66.5185	1340
112.901	66.7667	1345
117.358	67.6602	1363
119.863	67.412	1358
122.708	67.3624	1357
124.994	67.0149	1350
126.964	66.5185	1340
129.183	66.171	1333
131.866	66.0717	1331
134.743	66.0717	1331
137.724	66.1213	1332
140.709	66.171	1333
144.345	66.5185	1340
147.461	66.6177	1342
150.474	66.6674	1343
153.948	66.9156	1348
155.466	66.3199	1336
159.539	66.8163	1346
163.897	67.412	1358
167.447	67.6602	1363
170.394	67.6602	1363
173.086	67.5609	1361
175.51	67.3624	1357
176.866	66.7667	1345
179.105	66.5185	1340
180.236	65.8731	1327
182.415	65.6249	1322
185.272	65.6249	1322
188.557	65.7738	1325
190.266	65.3767	1317
189.447	64.1357	1292
192.091	64.0861	1291
197.297	64.8803	1307
201.96	65.476	1319
206.209	65.9228	1328
210.496	66.3695	1337
214.823	66.8163	1346
218.703	67.1142	1352
221.298	67.0149	1350
223.386	66.7667	1345
224.779	66.3199	1336
226.474	65.9724	1329
228.657	65.7738	1325
231.172	65.6746	1323
233.855	65.6249	1322
236.355	65.5257	1320
239.57	65.6249	1322
242.061	65.5257	1320
244.358	65.3767	1317
247.018	65.3271	1316
249.862	65.3271	1316
252.707	65.3271	1316
255.746	65.3767	1317
257.808	65.1782	1313
259.257	64.8307	1306
262.882	65.0292	1310
267.54	65.476	1319
272.441	65.9724	1329
277.386	66.4688	1339
279.234	66.2206	1334
281.483	66.0717	1331
282.01	65.5257	1320
283.569	65.2278	1314
287.717	65.5257	1320
291.231	65.6746	1323
294.758	65.8235	1326
296.502	65.5753	1321
298.678	65.4264	1318
300.612	65.2278	1314
304.607	65.476	1319
305.826	65.1285	1312
309.839	65.3767	1317
309.837	64.781	1305
312.179	64.6818	1303
314.028	64.4832	1299
315.861	64.2846	1295
318.414	64.235	1294
322.949	64.5825	1301
326.763	64.781	1305
330.847	65.0292	1310
333.933	65.0789	1311
337.538	65.2278	1314
340.119	65.1782	1313
344.003	65.3767	1317
348.693	65.7242	1324
351.555	65.7242	1324
354.15	65.6746	1323
357.01	65.6746	1323
357.693	65.2774	1315
359.714	65.1285	1312
362.273	65.0789	1311
363.436	64.781	1305
365.135	64.5825	1301
367.382	64.4832	1299
368.765	64.235	1294
372.136	64.3343	1296
375.517	64.4336	1298
377.74	64.3343	1296
379.073	64.0861	1291
380.681	63.8875	1287
384.059	63.9868	1289
387.745	64.1357	1292
390.538	64.1357	1292
392.722	64.0364	1290
395.818	64.0861	1291
397.682	63.9371	1288
398.29	63.5897	1281
401.372	63.6393	1282
402.252	63.3415	1276
407.867	63.7882	1285
413.521	64.235	1294
413.101	63.7386	1284
411.99	63.1429	1272
417.022	63.4904	1279
423.069	63.9868	1289
424.203	63.7386	1284
426.314	63.6393	1282
423.73	62.8451	1266
425.793	62.7458	1264
434.289	63.5897	1281
440.811	64.1357	1292
444.291	64.235	1294
441.214	63.3911	1277
443.28	63.2918	1275
445.686	63.2422	1274
447.736	63.1429	1272
452.256	63.3911	1277
458.224	63.8379	1286
462.438	64.0364	1290
464.866	63.9868	1289
462.936	63.3415	1276
462.409	62.8947	1267
464.781	62.8451	1266
467.887	62.8947	1267
468.397	62.5969	1261
470.376	62.4976	1259
475.352	62.7954	1265
481.11	63.1925	1273
485.383	63.3911	1277
488.143	63.3911	1277
487.828	62.994	1269
489.412	62.8451	1266
492.926	62.9443	1268
498.794	63.3415	1276
504.697	63.7386	1284
508.658	63.8875	1287
510.646	63.7882	1285
509.428	63.2918	1275
510.176	63.0436	1270
512.921	63.0436	1270
514.854	62.9443	1268
518.82	63.0933	1271
525.671	63.5897	1281
531.74	63.9868	1289
535.356	64.0861	1291
532.311	63.3911	1277
526.692	62.3983	1257
521.407	61.4551	1238
523.236	61.3558	1236
528.887	61.7033	1243
520.455	60.4127	1217
503.744	58.1788	1172
521.396	59.9163	1207
-549.584	67.1356	1296
-556.908	68.3788	1320
-567.906	70.0883	1353
-570.41	70.7617	1366
-567.872	70.8135	1367
-558.305	69.9847	1351
-552.918	69.6739	1345
-556.554	70.5027	1361
-557.679	71.0208	1371
-555.12	71.0726	1372
-544.508	70.0883	1353
-537.18	69.5185	1342
-531.492	69.1559	1335
-531.378	69.5185	1342
-532.415	70.0365	1352
-534.192	70.6581	1364
-538.254	71.5906	1382
-531.393	71.0726	1372
-526.116	70.7617	1366
-520.866	70.4509	1360
-517.164	70.3473	1358
-514.607	70.3991	1359
-511.669	70.3991	1359
-505.737	69.9847	1351
-502.816	69.9847	1351
-497.306	69.6221	1344
-492.561	69.3631	1339
-487.838	69.1041	1334
-487.136	69.4149	1340
-487.13	69.8293	1348
-486.73	70.1919	1355
-482.016	69.9329	1350
-480.517	70.1401	1354
-476.532	69.9847	1351
-472.91	69.8811	1349
-469.646	69.8293	1348
-468.117	70.0365	1352
-469.667	70.7099	1365
-472.187	71.5388	1381
-469.202	71.5388	1381
-467.567	71.746	1385
-464.908	71.7978	1386
-458.579	71.2798	1376
-450.638	70.5027	1361
-442.104	69.6221	1344
-438.545	69.5185	1342
-436.293	69.6221	1344
-432.098	69.4149	1340
-430.162	69.5703	1343
-428.85	69.8293	1348
-425.936	69.8293	1348
-422.081	69.6739	1345
-419.173	69.6739	1345
-414.409	69.3631	1339
-409.363	69.0005	1332
-406.178	68.9487	1331
-407.543	69.6739	1345
-406.14	69.9329	1350
-403.52	69.9847	1351
-400.303	69.9329	1350
-398.268	70.0883	1353
-395.635	70.1401	1354
-395.609	70.6581	1364
-393.236	70.7617	1366
-392.283	71.1244	1373
-387.614	70.8135	1367
-382.689	70.4509	1360
-377.515	70.0365	1352
-370.159	69.2077	1336
-368.096	69.3631	1339
-370.384	70.3473	1358
-366.366	70.1401	1354
-362.633	69.9847	1351
-359.18	69.8811	1349
-357.849	70.1919	1355
-352.038	69.6221	1344
-347.574	69.3113	1338
-344.94	69.3631	1339
-344.344	69.8293	1348
-330.539	67.6018	1305
-326.713	67.3946	1301
-321.909	66.9802	1293
-316.893	66.514	1284
-313.139	66.3068	1280
-310.857	66.4104	1282
-310.008	66.8248	1290
-311.03	67.6536	1306
-309.623	67.9644	1312
-309.359	68.5342	1323
-313.68	70.1401	1354
-314.655	71.0208	1371
-311.009	70.8653	1368
-304.899	70.1401	1354
-300.188	69.7257	1346
-295.291	69.2595	1337
-292.838	69.3631	1339
-289.51	69.2595	1337
-286.406	69.2077	1336
-283.518	69.2077	1336
-282.73	69.7257	1346
-281.068	70.0365	1352
-281.231	70.8135	1367
-278.887	70.9689	1370
-275.724	70.9171	1369
-270.971	70.4509	1360
-267.44	70.2955	1357
-264.117	70.1919	1355
-261.38	70.2437	1356
-258.83	70.3473	1358
-255.895	70.3473	1358
-249.793	69.4667	1341
-246.341	69.3113	1338
-243.813	69.4149	1340
-241.096	69.4667	1341
-239.973	69.9847	1351
-236.351	69.7775	1347
-232.399	69.4667	1341
-230.185	69.6739	1345
-226.602	69.4667	1341
-225.538	70.0365	1352
-225.25	70.8653	1368
-224.08	71.4352	1379
-220.458	71.228	1375
-217.802	71.3316	1377
-214.669	71.2798	1376
-212.156	71.4352	1379
-208.416	71.1762	1374
-204.101	70.7099	1365
-199.529	70.1401	1354
-194.569	69.4149	1340
-191.243	69.2595	1337
-188.071	69.1559	1335
-185.047	69.1041	1334
-183.392	69.5703	1343
-180.892	69.7257	1346
-177.321	69.4667	1341
-173.642	69.1559	1335
-170.244	68.9487	1331
-169.002	69.6221	1344
-166.961	69.9847	1351
-164.527	70.1919	1355
-161.001	69.9329	1350
-158.083	69.9329	1350
-155.509	70.0883	1353
-153.374	70.4509	1360
-150.545	70.5027	1361
-149.121	71.228	1375
-145.83	71.0726	1372
-141.927	70.6063	1363
-138.267	70.2437	1356
-135.335	70.2437	1356
-132.111	70.0883	1353
-128.422	69.6739	1345
-125.142	69.4667	1341
-122.152	69.4149	1340
-119.255	69.4149	1340
-116.532	69.5185	1342
-114.054	69.7775	1347
-111.885	70.2437	1356
-109.596	70.6581	1364
-107.586	71.2798	1376
-104.84	71.4352	1379
-101.046	70.8653	1368
-96.7266	69.8811	1349
-92.976	69.2595	1337
-89.4793	68.7933	1328
-86.9999	69.1041	1334
-84.3684	69.3113	1338
-81.4151	69.2595	1337
-78.8186	69.5185	1342
-75.9741	69.5703	1343
-73.3974	69.8811	1349
-70.6902	70.0883	1353
-67.4148	69.7257	1346
-64.0738	69.2595	1337
-61.1836	69.2595	1337
-57.9446	68.8451	1329
-55.0717	68.8451	1329
-52.4737	69.2077	1336
-49.7341	69.4149	1340
-46.9772	69.6221	1344
-44.2031	69.8293	1348
-41.2278	69.7257	1346
-38.3466	69.7775	1347
-35.5137	69.9329	1350
-32.5712	69.8811	1349
-29.6771	69.9329	1350
-26.6993	69.7775	1347
-23.7875	69.7775	1347
-20.8291	69.6221	1344
-17.8704	69.4149	1340
-14.9737	69.4149	1340
-11.9959	68.9487	1331
-9.07073	68.5861	1324
-6.23675	68.8969	1330
-3.37178	69.1041	1334
-0.490617	69.4667	1341
2.41183	69.5703	1343
5.32293	69.6739	1345
8.23044	69.6739	1345
11.08	69.3113	1338
13.9828	69.3631	1339
16.8647	69.3113	1338
19.9048	69.8293	1348
23.0727	70.6063	1363
26.0764	70.7617	1366
28.9443	70.5545	1362
31.7246	70.1919	1355
34.4492	69.7775	1347
37.3332	69.7257	1346
40.2429	69.7257	1346
43.1846	69.7775	1347
45.9938	69.6221	1344
48.7536	69.4149	1340
51.5732	69.3113	1338
54.3028	69.1041	1334
57.1008	69.0005	1332
59.755	68.7415	1327
62.718	68.8451	1329
65.3441	68.5861	1324
68.1547	68.5342	1323
71.2831	68.7933	1328
74.0422	68.6897	1326
76.8506	68.6378	1325
79.5945	68.5342	1323
82.7038	68.7415	1327
86.3462	69.3631	1339
89.6406	69.6739	1345
93.1674	70.1401	1354
95.6685	69.8293	1348
97.4856	69.0523	1333
99.6142	68.5342	1323
102.784	68.7415	1327
106.21	69.1041	1334
109.175	69.1559	1335
112.817	69.6221	1344
116.411	70.0365	1352
118.892	69.7775	1347
121.623	69.6739	1345
124.438	69.6221	1344
127.249	69.5703	1343
129.861	69.4149	1340
132.163	69.1041	1334
134.743	68.9487	1331
137.827	69.0523	1333
141.131	69.2595	1337
144.129	69.3113	1338
147.022	69.3113	1338
150.138	69.4149	1340
153.606	69.6739	1345
156.048	69.4667	1341
160.25	70.0365	1352
163.777	70.2955	1357
167.201	70.5027	1361
170.269	70.5545	1362
172.704	70.3473	1358
175.381	70.2437	1356
176.866	69.6739	1345
179.372	69.5185	1342
180.372	68.7933	1328
182.139	68.3788	1320
184.712	68.2752	1318
187.561	68.2752	1318
190.266	68.2234	1317
189.74	67.032	1294
191.942	66.8248	1290
196.995	67.6018	1305
201.96	68.327	1319
206.674	68.9487	1331
210.811	69.3631	1339
214.983	69.7775	1347
218.865	70.0883	1353
221.626	70.0365	1352
223.552	69.7257	1346
225.62	69.4667	1341
227.497	69.1559	1335
230.038	69.0523	1333
232.22	68.8451	1329
234.386	68.6378	1325
236.355	68.3788	1320
238.483	68.1716	1316
241.145	68.1198	1315
243.245	67.9126	1311
245.891	67.8608	1310
248.723	67.8608	1310
252.899	68.2234	1317
255.94	68.2752	1318
259.182	68.3788	1320
261.837	68.327	1319
264.287	68.2234	1317
267.337	68.2752	1318
272.236	68.7933	1328
274.9	68.7415	1327
278.396	68.8969	1330
279.791	68.5342	1323
280.942	68.1198	1315
282.921	67.9126	1311
286.191	68.0162	1313
290.35	68.327	1319
294.091	68.5342	1323
295.379	68.1716	1316
297.998	68.1198	1315
300.383	68.0162	1313
303.683	68.1198	1315
306.992	68.2234	1317
308.898	68.0162	1313
310.786	67.809	1309
312.418	67.55	1304
313.303	67.1356	1296
316.592	67.2392	1298
319.152	67.1874	1297
322.701	67.3428	1300
327.264	67.7054	1307
331.604	68.0162	1313
334.443	68.0162	1313
337.538	68.068	1314
339.342	67.8608	1310
342.697	67.9644	1312
347.113	68.2752	1318
349.962	68.2752	1318
354.15	68.5342	1323
357.01	68.5342	1323
357.421	68.068	1314
360.262	68.068	1314
362.826	68.0162	1313
365.107	67.9126	1311
366.538	67.6536	1306
366.816	67.1874	1297
368.765	67.032	1294
370.988	66.9284	1292
374.359	67.032	1294
374.533	66.5658	1285
377.018	66.514	1284
380.976	66.7212	1288
384.952	66.9284	1292
389.246	67.1874	1297
392.957	67.3428	1300
395.462	67.291	1299
397.351	67.1356	1296
398.608	66.8766	1291
399.845	66.6176	1286
400.433	66.255	1279
399.415	65.6333	1267
404.376	65.9959	1274
412.243	66.8248	1290
413.423	66.5658	1285
412.638	65.9959	1274
417.022	66.255	1279
421.1	66.4622	1283
422.882	66.3068	1280
422.989	65.8923	1272
421.053	65.1671	1258
424.109	65.2189	1259
431.916	65.9959	1274
447.294	67.9126	1311
448.411	67.6536	1306
438.796	65.7887	1270
440.151	65.5815	1266
442.887	65.5815	1266
445.624	65.5815	1266
448.715	65.6333	1267
453.948	65.9959	1274
459.211	66.3586	1281
464.144	66.6694	1287
462.936	66.0995	1276
462.774	65.6851	1268
465.515	65.6851	1268
469.364	65.8405	1271
468.397	65.3225	1261
466.266	64.6491	1248
472.346	65.1153	1257
480.732	65.8923	1272
488.803	66.6176	1286
492.73	66.773	1289
496.285	66.8766	1291
499.076	66.8766	1291
499.923	66.6176	1286
498.794	66.0995	1276
500.373	65.9441	1273
503.52	65.9959	1274
504.685	65.7887	1270
502.636	65.1671	1258
503.347	64.9081	1253
506.459	64.9599	1254
510.794	65.1671	1258
511.064	64.8563	1252
518.285	65.4261	1263
525.553	65.9959	1274
530.38	66.255	1279
528.143	65.6333	1267
521.245	64.4419	1244
521.828	64.1829	1239
528.316	64.6491	1248
520.377	63.354	1223
494.368	59.8833	1156
494.288	59.5725	1150
510.165	61.1783	1181
524.44	62.577	1208
556.236	62.6288	1209
674.147	63.1468	1219
664.568	62.0072	1197
659.353	61.2819	1183
664.148	61.4892	1187
670.084	61.8	1193
677.174	62.2144	1201
682.034	62.4216	1205
682.935	62.2662	1202
689.525	62.6288	1209
715.612	64.0275	1236
706.08	62.9396	1215
699.373	62.1108	1199
697.282	61.6964	1191
710.886	60.6603	1171
712.808	60.6085	1170
717.783	60.8157	1174
724.616	61.1783	1181
729.016	61.3337	1184
730.34	61.2301	1182
732.275	61.1783	1181
732.961	61.0229	1178
741.127	61.4892	1187
-676.266	66.1594	1226
-668.121	65.6198	1216
-633.863	64.5405	1196
-637.612	65.1881	1208
-646.039	66.3213	1229
-648.094	66.807	1238
-587.638	67.2387	1246
-584.475	67.1848	1245
-575.092	67.3466	1248
-572.394	67.3466	1248
-536.014	68.2101	1264
-556.486	71.1781	1319
-563.289	72.4192	1342
-564.981	73.0128	1353
-564.134	73.2826	1358
-561.198	73.2826	1358
-556.207	73.0128	1353
-555.327	73.2826	1358
-556.866	73.8763	1369
-551.479	73.5525	1363
-543.703	72.9049	1351
-533.177	71.8796	1332
-525.122	71.1781	1319
-521.875	71.1241	1318
-521.388	71.4479	1324
-523.226	72.0955	1336
-528.517	73.2287	1357
-525.971	73.2826	1358
-518.413	72.6351	1346
-513.589	72.3653	1341
-511.832	72.5272	1344
-511.578	72.9049	1351
-503.01	72.0955	1336
-498.999	71.9336	1333
-492.767	71.4479	1324
-487.315	71.0701	1317
-483.732	70.9622	1315
-486.01	71.7177	1329
-483.864	71.8256	1331
-481.709	71.9336	1333
-479.187	71.9875	1334
-478.088	72.2573	1339
-475.194	72.2573	1339
-473.005	72.3653	1341
-470.807	72.4732	1343
-465.117	72.0415	1335
-461.192	71.8796	1332
-460.377	72.2034	1338
-460.562	72.689	1347
-459.009	72.9049	1351
-457.101	73.0668	1354
-450.82	72.5272	1344
-445.915	72.2034	1338
-445.341	72.5811	1345
-438.815	71.9875	1334
-438.218	72.3653	1341
-438.241	72.8509	1350
-432.421	72.3653	1341
-430.483	72.5272	1344
-426.623	72.3653	1341
-421.828	72.0415	1335
-416.746	71.6637	1328
-413.252	71.5558	1326
-409.457	71.3939	1323
-405.675	71.232	1320
-402.211	71.1241	1318
-400.271	71.286	1321
-397.114	71.232	1320
-393.066	71.0162	1316
-389.925	70.9622	1315
-388.554	71.232	1320
-387.746	71.6098	1327
-386.908	71.9875	1334
-386.903	72.5272	1344
-390.569	73.7683	1367
-389.031	74.0381	1372
-386.347	74.0921	1373
-383.658	74.1461	1374
-380.134	74.0381	1372
-376.068	73.8223	1368
-369.565	73.1208	1355
-363.66	72.5272	1344
-359.949	72.3653	1341
-359.447	72.8509	1350
-357.849	73.1208	1355
-353.086	72.743	1348
-346.016	71.8796	1332
-341.333	71.5018	1325
-333.104	70.3686	1304
-324.207	69.0735	1280
-320.686	68.9116	1277
-313.693	67.9942	1260
-305.293	66.753	1237
-302.13	66.6451	1235
-299.945	66.753	1237
-301.357	67.6704	1254
-303.409	68.7497	1274
-303.723	69.4512	1287
-302.11	69.721	1292
-300.475	69.9909	1297
-300.426	70.6384	1309
-297.368	70.5845	1308
-298.594	71.5558	1326
-294.613	71.286	1321
-291.978	71.34	1322
-288.464	71.1781	1319
-283.447	70.6384	1309
-276.545	69.6131	1290
-275.454	70.0448	1298
-281.89	72.4192	1342
-281.692	73.1208	1355
-280.408	73.5525	1363
-277.665	73.6064	1364
-273.307	73.2287	1357
-270.374	73.2287	1357
-266.849	73.0668	1354
-263.142	72.8509	1350
-261.38	73.1747	1356
-258.83	73.2826	1358
-254.953	73.0128	1353
-249.793	72.3653	1341
-245.789	72.0415	1335
-243.631	72.2573	1339
-243.433	73.0668	1354
-241.572	73.3906	1360
-238.983	73.4985	1362
-235.172	73.2287	1357
-229.843	72.4732	1343
-227.278	72.5811	1345
-225.871	73.0668	1354
-225.579	73.9302	1370
-223.43	74.2	1375
-220.458	74.2	1375
-218.118	74.4159	1379
-215.917	74.6857	1384
-212.771	74.6317	1383
-209.023	74.3619	1378
-205.147	74.0381	1372
-200.118	73.2826	1358
-195.005	72.4732	1343
-191.386	72.2034	1338
-188.353	72.1494	1337
-185.047	71.9875	1334
-182.709	72.2034	1338
-181.026	72.689	1347
-177.718	72.5272	1344
-173.902	72.1494	1337
-170.372	71.8796	1332
-168.624	72.3653	1341
-166.22	72.5811	1345
-163.07	72.4732	1343
-160.047	72.4192	1342
-156.209	71.9875	1334
-154.015	72.3113	1340
-152.472	72.9589	1352
-150.545	73.4445	1361
-149.013	74.1461	1374
-145.723	73.9842	1371
-142.239	73.7144	1366
-138.267	73.1747	1356
-135.136	73.0668	1354
-131.916	72.9049	1351
-128.422	72.5811	1345
-124.955	72.2573	1339
-121.696	72.0415	1335
-118.899	72.0955	1336
-116.098	72.1494	1337
-113.377	72.2573	1339
-111.142	72.689	1347
-109.195	73.3366	1359
-107.352	74.0921	1373
-104.688	74.308	1377
-101.12	73.8763	1369
-97.2285	73.1747	1356
-93.5323	72.5811	1345
-89.951	72.0415	1335
-87.0651	72.0415	1335
-84.1162	71.9875	1334
-81.1715	71.9336	1333
-78.1725	71.8256	1331
-75.1256	71.6637	1328
-72.7445	72.1494	1337
-70.3767	72.689	1347
-67.9157	73.1747	1356
-64.4572	72.5811	1345
-61.2294	72.2034	1338
-57.8574	71.6098	1327
-55.3203	72.0415	1335
-52.7879	72.5272	1344
-49.9939	72.689	1347
-47.152	72.797	1349
-44.1375	72.6351	1346
-41.1972	72.5811	1345
-38.3181	72.6351	1346
-35.5926	73.0128	1353
-32.6678	73.0128	1353
-29.6331	72.743	1348
-26.5804	72.3653	1341
-23.5932	72.0955	1336
-20.6741	71.9875	1334
-17.6037	71.232	1320
-14.7726	71.34	1322
-11.9058	71.286	1321
-9.04332	71.232	1320
-6.20393	71.3939	1323
-3.36673	71.8796	1332
-0.490617	72.3653	1341
2.41363	72.5272	1344
5.32689	72.6351	1346
8.22432	72.5272	1344
11.0883	72.2573	1339
14.0977	72.8509	1350
17.1168	73.2826	1358
20.1853	73.7683	1367
23.2589	74.1461	1374
26.1909	74.0381	1372
28.9655	73.5525	1363
31.6076	72.8509	1350
34.3468	72.4732	1343
37.1668	72.3113	1340
39.9439	72.0955	1336
43.0885	72.5272	1344
45.8569	72.3113	1340
48.6445	72.1494	1337
51.4961	72.0955	1336
54.0585	71.6637	1328
56.6721	71.34	1322
59.3948	71.1781	1319
62.3405	71.286	1321
65.2948	71.3939	1323
68.4123	71.6637	1328
71.2294	71.6098	1327
74.2097	71.7177	1329
76.9666	71.6098	1327
79.8352	71.6098	1327
82.8908	71.7717	1330
86.1527	72.0955	1336
89.7073	72.6351	1346
92.961	72.9049	1351
95.9524	72.9589	1352
98.0706	72.3653	1341
99.7648	71.5018	1325
102.319	71.286	1321
105.732	71.6637	1328
108.685	71.7177	1329
112.397	72.2573	1339
115.378	72.3113	1340
118.451	72.4192	1342
121.533	72.5272	1344
124.531	72.5811	1345
127.438	72.5811	1345
130.54	72.689	1347
133.848	72.9049	1351
137.072	73.0668	1354
139.999	73.0668	1354
145.037	74.1461	1374
144.237	72.2573	1339
146.362	71.8796	1332
149.914	72.2034	1338
153.606	72.5811	1345
157.561	73.0668	1354
161.91	73.7144	1366
165.104	73.8223	1368
167.447	73.5525	1363
169.643	73.2287	1357
171.305	72.689	1347
172.536	71.9875	1334
175.288	71.9336	1333
178.838	72.2034	1338
182.002	72.3113	1340
183.933	71.9336	1333
185.693	71.5018	1325
188.7	71.5558	1326
192.722	71.9875	1334
195.459	71.9336	1333
195.96	71.0701	1317
196.995	70.4226	1305
199.204	70.2067	1301
202.948	70.5305	1307
207.348	71.0701	1317
212.11	71.7177	1329
217.894	72.689	1347
222.282	73.1747	1356
225.213	73.1747	1356
226.798	72.743	1348
230.053	72.8509	1350
234.697	73.3906	1360
237.287	73.2826	1358
236.862	72.2573	1339
237.787	71.6637	1328
239.027	71.1781	1319
241.511	71.0701	1317
243.06	70.6924	1310
246.079	70.7464	1311
248.154	70.5305	1307
253.091	71.1241	1318
256.911	71.3939	1323
258.986	71.1781	1319
262.234	71.286	1321
265.291	71.34	1322
268.96	71.5558	1326
272.646	71.7717	1330
269.514	70.2067	1301
270.651	69.775	1293
273.447	69.775	1293
276.028	69.721	1292
277.958	69.5052	1288
280.088	69.3433	1285
282.866	69.3433	1285
288.089	69.9369	1296
291.788	70.1528	1300
296.638	70.6384	1309
301.069	71.0162	1316
302.297	70.6384	1309
303.262	70.2067	1301
304.193	69.775	1293
306.988	69.775	1293
310.022	69.829	1294
314.512	70.2067	1301
317.324	70.2067	1301
315.953	69.2893	1284
318.977	69.3433	1285
322.005	69.3973	1286
323.775	69.1814	1282
324.764	68.8037	1275
324.437	68.1561	1263
325.872	67.8863	1258
327.286	67.6165	1253
330.258	67.6704	1254
335.093	68.1021	1262
343.71	69.2893	1284
351.882	70.3686	1304
356.605	70.7464	1311
358.343	70.5305	1307
358.681	70.0448	1298
365.107	70.7464	1311
368.222	70.8003	1312
366.816	69.9909	1297
366.77	69.4512	1287
364.096	68.4259	1268
362.209	67.5625	1252
366.372	67.8323	1257
370.558	68.1021	1262
375.652	68.5338	1270
381.377	69.0735	1280
385.945	69.3973	1286
386.004	68.9116	1277
386.634	68.5338	1270
386.62	68.0482	1261
386.875	67.6165	1253
388.651	67.4546	1250
392.293	67.6165	1253
400.991	68.6418	1272
401.836	68.318	1266
402.975	68.0482	1261
405.379	67.9942	1260
410.046	68.318	1266
412.131	68.2101	1264
412.238	67.7784	1256
411.319	67.1848	1245
412.015	66.861	1239
416.032	67.0768	1243
422.761	67.7244	1255
428.187	68.1561	1263
431.94	68.318	1266
432.274	67.9402	1259
428.776	66.9689	1241
441.889	68.5878	1271
449.884	69.3973	1286
453.368	69.5052	1288
447.652	68.2101	1264
447.891	67.8323	1257
452.042	68.0482	1261
457.653	68.4799	1269
462.21	68.7497	1274
465.694	68.8576	1276
469.187	68.9656	1278
471.58	68.9116	1277
466.912	67.8323	1257
463.277	66.9149	1240
469.34	67.4006	1249
475.819	67.9402	1259
482.722	68.5338	1270
486.614	68.6957	1273
486.675	68.318	1266
484.386	67.6165	1253
479.709	66.5912	1234
481.594	66.4832	1232
483.078	66.3213	1229
483.364	65.9976	1223
481.239	65.35	1211
485.455	65.5658	1215
495.312	66.5372	1233
506.459	67.6704	1254
502.673	66.807	1238
500.043	66.1055	1225
501.46	65.9436	1222
506.577	66.2674	1228
512.549	66.6991	1236
515.221	66.6991	1236
511.188	65.8357	1220
502.875	64.4326	1194
497.836	63.4613	1176
491.869	62.382	1156
484.532	61.1408	1133
485.262	60.925	1129
498.07	62.2201	1153
510.981	63.5152	1177
522.252	64.5945	1197
536.656	65.404	1212
546.763	65.6738	1217
549.393	65.6738	1217
549.303	65.35	1211
547.363	64.8104	1201
549.501	64.7564	1200
549.795	64.4866	1195
557.001	65.0262	1205
570.751	66.3213	1229
578.25	66.2674	1228
579.959	66.1594	1226
580.233	65.8896	1221
576.231	63.1375	1170
567.878	61.9503	1148
565.391	61.4106	1138
572.841	61.9503	1148
582.339	62.7058	1162
594.414	63.7311	1181
594.945	63.5152	1177
592.413	62.9756	1167
586.269	62.0582	1150
588.243	62.0042	1149
594.325	62.382	1156
597.341	62.436	1157
603.989	62.8677	1165
614.317	63.6771	1180
627.323	64.7564	1200
639.891	65.7817	1219
634.619	64.9722	1204
629.283	64.1628	1189
636.458	64.1088	1188
637.413	63.9469	1185
642.675	64.2168	1190
641.452	63.839	1183
647.82	64.2168	1190
666.242	65.7817	1219
682.595	67.1308	1244
685.835	67.1848	1245
665.852	64.9722	1204
652.354	63.4073	1175
657.123	63.6232	1179
660.791	63.7311	1181
668.961	64.2707	1191
672.663	64.3786	1193
674.11	64.2707	1191
676.685	64.2707	1191
677.548	64.1088	1188
685.841	64.6485	1198
693.028	65.0802	1206
698.519	65.35	1211
700.558	65.296	1210
702.593	65.2421	1209
705.206	65.2421	1209
703.136	64.8104	1201
705.732	64.8104	1201
709.508	64.9183	1203
712.109	64.9183	1203
720.056	65.404	1212
716.117	64.8104	1201
718.115	64.7564	1200
722.511	64.9183	1203
727.522	65.1341	1207
709.565	63.2994	1173
704.815	62.6518	1161
712.199	63.0835	1169
723.286	63.839	1183
732.592	64.4326	1194
732.71	64.2168	1190
733.429	64.0549	1187
734.755	63.9469	1185
741.05	64.2707	1191
751.741	64.9722	1204
-694.17	67.9676	1211
-694.407	68.2482	1216
-695.761	68.6411	1223
-693.684	68.6972	1224
-688.215	68.4166	1219
-687.267	68.585	1222
-684.626	68.585	1222
-687.007	69.0901	1231
-688.237	69.483	1238
-684.453	69.3707	1236
-686.746	69.8758	1245
-683.505	69.8197	1244
-679.174	69.6513	1241
-673.221	69.3146	1235
-646.984	67.687	1206
-632.088	66.3961	1183
-621.016	65.4981	1167
-620.084	65.6664	1170
-618.082	65.7226	1171
-617.654	65.9471	1175
-612.496	65.6664	1170
-608.924	65.5542	1168
-602.246	65.1052	1160
-606.976	65.8909	1174
-615.251	67.0696	1195
-618.82	67.7431	1207
-623	69.3707	1236
-621.154	69.7636	1243
-613.989	69.2585	1234
-600.918	68.0798	1213
-580.54	66.0593	1177
-570.138	65.1613	1161
-583.03	68.7533	1225
-584.172	69.2023	1233
-575.848	68.5288	1221
-575.086	68.7533	1225
-579.447	69.5952	1240
-571.771	69.3146	1235
-566.798	69.034	1230
-564.139	69.034	1230
-565.132	69.483	1238
-568.362	70.2126	1251
-532.742	68.4166	1219
-530.107	68.4166	1219
-526.607	68.3043	1217
-520.531	67.8553	1209
-514.063	67.3502	1200
-514.878	67.7992	1208
-524.141	69.3707	1236
-529.063	70.381	1254
-534.327	71.4473	1273
-535.751	72.0086	1283
-534.639	72.2331	1287
-533.097	72.4015	1290
-531.953	72.626	1294
-530.791	72.8505	1298
-525.138	72.4576	1291
-519.919	72.1208	1285
-519.556	72.4576	1291
-520.368	72.9627	1300
-519.15	73.1872	1304
-516.727	73.2433	1305
-511.937	72.9627	1300
-511.477	73.2995	1306
-508.264	73.2433	1305
-502.345	72.7943	1297
-496.075	72.2892	1288
-491.375	72.0086	1283
-485.174	71.5035	1274
-488.479	72.4015	1290
-487.95	72.7382	1296
-475.415	71.279	1270
-468.203	70.6055	1258
-466.594	70.7738	1261
-467.915	71.3912	1272
-470.285	72.177	1286
-472.231	72.9066	1299
-466.893	72.5137	1292
-460.149	71.8963	1281
-453.809	71.3351	1271
-454.61	71.8963	1281
-460.307	73.2433	1305
-464.146	74.3097	1324
-461.284	74.3097	1324
-458.076	74.2536	1323
-455.216	74.2536	1323
-454.749	74.6465	1330
-451.535	74.5903	1329
-443.598	73.7485	1314
-433.378	72.5137	1292
-426.586	71.8402	1280
-424.15	71.8963	1281
-426.315	72.7382	1296
-425.147	73.0188	1301
-426.23	73.6923	1313
-431.453	75.0955	1338
-427.6	74.9271	1335
-416.124	73.4117	1308
-403.502	71.6718	1277
-392.268	70.1565	1250
-387.696	69.8197	1244
-389.959	70.7177	1260
-394.918	72.1208	1285
-397.328	73.075	1302
-396.029	73.3556	1307
-391.098	72.9627	1300
-386.495	72.626	1294
-382.808	72.4576	1291
-379.429	72.3453	1289
-375.474	72.1208	1285
-370.376	71.6718	1277
-371.357	72.4015	1290
-375.997	73.8607	1316
-377.406	74.7026	1331
-380.156	75.8251	1351
-378.073	75.9935	1354
-374.038	75.769	1350
-365.622	74.6465	1330
-358.383	73.7485	1314
-354.46	73.524	1310
