-445.462	76.0199	880
-446.08	76.4519	885
-441.658	76.0199	880
-430.261	74.3786	861
-425.912	73.9467	856
-429.511	74.8969	867
-431.582	75.588	875
-432.146	76.0199	880
-427.31	75.5016	874
-432.236	76.711	888
-431.77	76.9702	891
-427.431	76.5382	886
-423.115	76.1063	881
-418.82	75.6744	876
-418.354	75.9335	879
-414.559	75.588	875
-409.838	75.0697	869
-404.203	74.3786	861
-394.865	72.9964	845
-392.574	72.91	844
-392.601	73.2556	848
-398.141	74.6377	864
-402.694	75.8472	878
-400.34	75.7608	877
-395.264	75.1561	870
-388.409	74.2058	859
-381.152	73.1692	847
-375.291	72.3917	838
-371.696	72.0462	834
-372.555	72.5645	840
-375.152	73.4283	850
-380.781	74.8969	867
-384.151	75.9335	879
-382.686	76.0199	880
-379.053	75.6744	876
-374.145	75.0697	869
-367.126	74.033	857
-360.585	73.0828	846
-355.788	72.4781	839
-357.35	73.1692	847
-363.494	74.8105	866
-359.534	74.3786	861
-355.595	73.9467	856
-351.679	73.5147	851
-347.784	73.0828	846
-346.773	73.2556	848
-348.6	74.033	857
-345.939	73.8603	855
-338.054	72.5645	840
-330.634	71.3551	826
-327.256	71.0095	822
-325.479	71.0095	822
-327.64	71.8734	832
-328.974	72.5645	840
-330.274	73.2556	848
-332.702	74.2058	859
-330.46	74.1194	858
-325.924	73.5147	851
-321.038	72.8236	843
-316.186	72.1325	835
-313.628	71.9598	833
-311.453	71.8734	832
-314.121	72.91	844
-314.886	73.5147	851
-313.414	73.6011	852
-310.476	73.3419	849
-308.277	73.2556	848
-304.637	72.8236	843
-300.659	72.3053	837
-299.207	72.3917	838
-300.234	73.0828	846
-300.169	73.5147	851
-302.536	74.5514	863
-295.445	73.2556	848
-285.994	71.3551	826
-283.865	71.2687	825
-285.501	72.1325	835
-284.375	72.3053	837
-284.254	72.7372	842
-281.427	72.4781	839
-277.281	71.8734	832
-278.131	72.5645	840
-286.183	75.1561	870
-287.897	76.1063	881
-283.396	75.4152	873
-275.704	73.8603	855
-270.333	72.91	844
-275.507	74.8105	866
-279.955	76.5382	886
-280.55	77.2293	894
-277.994	77.0566	892
-270.495	75.5016	874
-265.533	74.6377	864
-262.139	74.2058	859
-259.373	73.9467	856
-256.62	73.6875	853
-255.672	73.9467	856
-252.636	73.6011	852
-249.617	73.2556	848
-244.569	72.3053	837
-241.31	71.8734	832
-240.087	72.0462	834
-239.713	72.4781	839
-238.75	72.7372	842
-232.427	71.3551	826
-233.155	72.1325	835
-234.674	73.1692	847
-233.118	73.2556	848
-230.467	72.9964	845
-229.993	73.4283	850
-228.693	73.6011	852
-228.182	74.033	857
-225.273	73.6875	853
-221.334	72.9964	845
-217.948	72.4781	839
-215.104	72.1325	835
-213.299	72.1325	835
-214.28	73.0828	846
-213.205	73.3419	849
-211.619	73.4283	850
-209.041	73.1692	847
-200.115	70.664	818
-197.862	70.4912	816
-196.579	70.664	818
-195.049	70.7504	819
-196.346	71.8734	832
-192.443	71.0959	823
-190.432	71.0095	822
-190.262	71.6142	829
-189.152	71.8734	832
-188.029	72.1325	835
-186.224	72.1325	835
-183.094	71.6142	829
-179.333	70.8367	820
-176.911	70.5776	817
-176.002	70.9231	821
-176.138	71.7006	830
-174.763	71.8734	832
-172.965	71.8734	832
-170.549	71.6142	829
-166.721	70.7504	819
-164.75	70.664	818
-164.974	71.5278	828
-162.593	71.2687	825
-160.029	70.9231	821
-159.026	71.2687	825
-159.339	72.2189	836
-158.662	72.7372	842
-156.656	72.6509	841
-154.838	72.6509	841
-153.748	72.9964	845
-152.101	73.0828	846
-150.805	73.3419	849
-147.215	72.4781	839
-144.188	71.8734	832
-141.363	71.3551	826
-138.732	70.9231	821
-135.79	70.3184	814
-133.865	70.232	813
-132.92	70.664	818
-132.435	71.3551	826
-130.333	71.1823	824
-128.084	70.9231	821
-125.232	70.3184	814
-123.321	70.232	813
-121.414	70.1457	812
-122.016	71.5278	828
-121.678	72.3917	838
-120.296	72.6509	841
-118.76	72.8236	843
-117.631	73.2556	848
-116.071	73.4283	850
-114.905	73.8603	855
-112.528	73.5147	851
-110.558	73.4283	850
-109.616	74.033	857
-108.141	74.2922	860
-104.675	73.1692	847
-102.116	72.6509	841
-99.5823	72.1325	835
-97.0746	71.6142	829
-94.478	71.0095	822
-93.1522	71.3551	826
-91.256	71.2687	825
-89.3641	71.1823	824
-87.0514	70.7504	819
-85.5934	71.0095	822
-83.6125	70.8367	820
-82.0395	71.0095	822
-80.3602	71.0959	823
-78.7721	71.2687	825
-76.9887	71.2687	825
-75.3876	71.4415	827
-73.5998	71.4415	827
-71.3779	71.0095	822
-68.6696	70.0593	811
-66.7514	69.8865	809
-65.324	70.232	813
-63.332	69.9729	810
-61.2008	69.541	805
-59.4607	69.541	805
-58.5809	70.5776	817
-57.5102	71.4415	827
-55.2508	70.8367	820
-52.826	69.9729	810
-51.1381	70.0593	811
-49.5067	70.232	813
-47.808	70.3184	814
-46.1615	70.4912	816
-44.9416	71.3551	826
-43.156	71.3551	826
-41.5207	71.6142	829
-39.7287	71.6142	829
-37.8451	71.4415	827
-36.3625	72.0462	834
-34.684	72.3053	837
-32.8746	72.3053	837
-30.3972	70.7504	819
-28.5568	70.5776	817
-26.5612	69.9729	810
-24.8102	69.9729	810
-23.0877	70.0593	811
-21.8343	71.7006	830
-20.016	71.6142	829
-18.136	71.2687	825
-16.412	71.5278	828
-14.8694	72.7372	842
-13.0492	72.7372	842
-11.149	72.2189	836
-9.34183	72.2189	836
-7.42648	71.1823	824
-5.61782	70.8367	820
-3.84522	70.8367	820
-2.13074	72.8236	843
-0.310248	73.2556	848
1.5175	72.9964	845
3.31644	72.3917	838
5.12796	72.3917	838
6.92292	72.2189	836
8.6779	71.787	831
10.4365	71.5278	828
12.0787	70.664	818
13.6269	69.541	805
15.1762	68.6771	795
17.2773	70.232	813
19.105	70.4912	816
21.0736	71.1823	824
23.1877	72.2189	836
25.0845	72.4781	839
26.9303	72.5645	840
28.4724	71.8734	832
30.089	71.4415	827
31.4527	70.4912	816
33.3388	70.7504	819
35.5379	71.6142	829
37.7803	72.4781	839
39.6412	72.5645	840
41.3089	72.3053	837
43.2729	72.5645	840
44.874	72.2189	836
46.5137	71.9598	833
48.0824	71.6142	829
49.6338	71.2687	825
51.0433	70.7504	819
52.5558	70.4048	815
53.7844	69.7137	807
55.116	69.1954	801
55.712	67.8132	785
57.994	68.5043	793
60.6871	69.6273	806
62.4294	69.6273	806
63.8533	69.2818	802
65.0145	68.6771	795
66.901	68.8499	797
68.5378	68.7635	796
70.435	68.9362	798
73.6069	70.3184	814
75.5517	70.4912	816
76.6524	69.8865	809
77.9167	69.4546	804
79.3575	69.1954	801
81.3927	69.4546	804
83.5443	69.8001	808
85.9244	70.3184	814
88.438	70.9231	821
90.4326	71.0959	823
92.6598	71.4415	827
94.4476	71.4415	827
95.7698	71.0959	823
96.9563	70.664	818
98.1211	70.232	813
100.37	70.5776	817
102.886	71.0959	823
103.648	70.4048	815
104.504	69.8001	808
106.119	69.7137	807
107.597	69.541	805
109.744	69.8001	808
112.457	70.4048	815
114.219	70.4048	815
115.98	70.4048	815
115.575	69.109	800
118.038	69.541	805
117.695	68.3315	791
119.254	68.2452	790
121.574	68.5907	794
124.067	69.0226	799
125.637	68.9362	798
126.085	68.2452	790
126.66	67.6405	783
127.533	67.2085	778
129.547	67.3813	780
131.402	67.4677	781
134.453	68.1588	789
137.022	68.5907	794
139.262	68.8499	797
140.631	68.6771	795
144.14	69.541	805
147.149	70.1457	812
147.437	69.4546	804
145.836	67.8996	786
145.47	66.9494	775
146.006	66.431	769
149.781	67.3813	780
159.623	71.0095	822
161.596	71.0959	823
162.383	70.664	818
162.345	69.8865	809
161.457	68.7635	796
162.973	68.6771	795
164.277	68.5043	793
166.2	68.5907	794
168.763	68.9362	798
171.342	69.2818	802
175.45	70.232	813
178.515	70.7504	819
181.166	71.0959	823
185.168	71.9598	833
187.867	72.3053	837
187.183	71.3551	826
187.596	70.8367	820
188.214	70.4048	815
190.209	70.4912	816
191.973	70.4912	816
193.974	70.5776	817
196.699	70.9231	821
199.924	71.4415	827
200.492	71.0095	822
200.301	70.3184	814
202.06	70.3184	814
203.069	70.0593	811
203.054	69.4546	804
203.009	68.8499	797
204.989	68.9362	798
210.081	70.0593	811
216.536	71.6142	829
219.382	71.9598	833
220.386	71.7006	830
221.912	71.6142	829
224.244	71.787	831
226.313	71.8734	832
228.385	71.9598	833
228.804	71.5278	828
233.379	72.3917	838
237.436	73.0828	846
241.81	73.8603	855
240.524	72.91	844
238.902	71.8734	832
238.965	71.3551	826
242.499	71.8734	832
244.885	72.0462	834
247.28	72.2189	836
252.364	73.1692	847
255.096	73.4283	850
258.747	73.9467	856
260.293	73.8603	855
261.528	73.6875	853
264.607	74.033	857
264.594	73.5147	851
262.363	72.3917	838
260.392	71.3551	826
258.686	70.4048	815
256.293	69.2818	802
256.74	68.9362	798
259.437	69.1954	801
262.147	69.4546	804
267.495	70.4048	815
271.239	70.9231	821
273.679	71.0959	823
271.107	69.9729	810
269.489	69.109	800
270.88	69.0226	799
279.089	70.664	818
280.514	70.5776	817
281.244	70.3184	814
279.527	69.4546	804
281.265	69.4546	804
284.763	69.8865	809
288.991	70.4912	816
291.467	70.664	818
293.236	70.664	818
293.561	70.3184	814
294.595	70.1457	812
297.081	70.3184	814
302.144	71.0959	823
307.986	72.0462	834
308.674	71.787	831
304.119	70.3184	814
301.37	69.2818	802
303.859	69.4546	804
312.819	71.0959	823
313.834	70.9231	821
317.915	71.4415	827
321.635	71.8734	832
324.989	72.2189	836
326.796	72.2189	836
326.245	71.7006	830
320.53	70.0593	811
315.925	68.6771	795
316.045	68.3315	791
319.764	68.7635	796
320.273	68.5043	793
317.521	67.5541	782
320.844	67.8996	786
321.722	67.7268	784
322.592	67.5541	782
324.697	67.6405	783
328.891	68.1588	789
338.139	69.7137	807
340.304	69.8001	808
343.744	70.1457	812
350.605	71.1823	824
352.814	71.2687	825
355.028	71.3551	826
355.085	71.0095	822
351.218	69.8865	809
348.604	69.0226	799
347.262	68.4179	792
346.771	67.986	787
350.686	68.4179	792
357.738	69.4546	804
363.053	70.1457	812
369.301	71.0095	822
373.335	71.4415	827
376.483	71.7006	830
373.264	70.7504	819
370.455	69.8865	809
368.984	69.2818	802
372.566	69.6273	806
374.773	69.7137	807
374.185	69.2818	802
376.387	69.3682	803
377.181	69.1954	801
378.913	69.1954	801
381.12	69.2818	802
387.627	70.1457	812
389.862	70.232	813
394.509	70.7504	819
396.764	70.8367	820
401.939	71.4415	827
393.963	69.7137	807
395.217	69.6273	806
401.392	70.4048	815
404.637	70.664	818
408.393	71.0095	822
410.17	71.0095	822
410.443	70.7504	819
409.194	70.232	813
410.952	70.232	813
410.678	69.8865	809
411.917	69.8001	808
417.248	70.4048	815
419.524	70.4912	816
423.869	70.9231	821
426.681	71.0959	823
429.501	71.2687	825
428.148	70.7504	819
425.719	70.0593	811
425.364	69.7137	807
427.637	69.8001	808
428.853	69.7137	807
430.064	69.6273	806
431.27	69.541	805
435.7	69.9729	810
436.911	69.8865	809
440.286	70.1457	812
443.675	70.4048	815
442.704	69.9729	810
440.614	69.3682	803
428.578	67.2085	778
429.154	67.0358	776
437.494	68.0724	788
445.328	69.0226	799
452.091	69.8001	808
453.837	69.8001	808
451.637	69.1954	801
452.237	69.0226	799
455.1	69.1954	801
456.832	69.1954	801
460.853	69.541	805
455.123	68.4179	792
455.105	68.1588	789
454.494	67.8132	785
466.652	69.3682	803
468.971	69.4546	804
467.196	68.9362	798
468.921	68.9362	798
467.697	68.5043	793
465.86	67.986	787
467.561	67.986	787
473.436	68.5907	794
479.94	69.2818	802
482.274	69.3682	803
476.777	68.3315	791
474.253	67.7268	784
477.162	67.8996	786
483.735	68.5907	794
487.285	68.8499	797
490.235	69.0226	799
490.731	68.8499	797
484.422	67.7268	784
482.396	67.2085	778
484.078	67.2085	778
487.008	67.3813	780
488.695	67.3813	780
-623.934	74.9114	846
-618.428	74.4687	841
-623.942	75.3542	851
-622.103	75.3542	851
-634.112	77.0366	870
-635.138	77.3908	874
-627.452	76.6824	866
-622.69	76.3282	862
-620.827	76.3282	862
-619.682	76.4167	863
-619.964	76.6824	866
-623.088	77.3022	873
-621.201	77.3022	873
-624.279	77.9221	880
-622.377	77.9221	880
-630.346	79.1617	894
-638.254	80.4014	908
-631.386	79.7816	901
-618.261	78.3648	885
-615.651	78.2762	884
-613.74	78.2762	884
-611.829	78.2762	884
-607.159	77.9221	880
-599.754	77.2137	872
-598.555	77.3022	873
-604.869	78.3648	885
-581.835	75.6198	854
-579.989	75.6198	854
-583.559	76.3282	862
-583.045	76.5053	864
-585.214	77.0366	870
-582.662	76.948	869
-573.432	75.974	858
-574.908	76.4167	863
-574.371	76.5938	865
-572.501	76.5938	865
-568.652	76.3282	862
-556.926	75	847
-556.405	75.1771	849
-553.264	75	847
-554.688	75.4427	852
-559.335	76.3282	862
-559.412	76.5938	865
-560.765	77.0366	870
-558.884	77.0366	870
-551.241	76.2396	861
-550.656	76.4167	863
-548.154	76.3282	862
-547.559	76.5053	864
-543.796	76.2396	861
-541.305	76.1511	860
-538.192	75.974	858
-533.837	75.6198	854
-535.728	76.1511	860
-541.318	77.2137	872
-539.433	77.2137	872
-537.548	77.2137	872
-528.292	76.1511	860
-526.433	76.1511	860
-525.794	76.3282	862
-521.499	75.974	858
-523.278	76.5053	864
-532.273	78.0991	882
-535.177	78.8075	890
-534.452	78.9846	892
-537.299	79.693	900
-528.81	78.719	889
-512.665	76.5938	865
-505.48	75.7969	856
-498.923	75.0885	848
-492.986	74.4687	841
-486.496	73.7603	833
-484.695	73.7603	833
-488.692	74.6458	843
-492.067	75.4427	852
-493.678	75.974	858
-492.969	76.1511	860
-492.824	76.4167	863
-489.251	76.1511	860
-485.692	75.8855	857
-482.146	75.6198	854
-484.799	76.3282	862
-487.418	77.0366	870
-483.863	76.7709	867
-477.541	76.0625	859
-474.577	75.8855	857
-472.724	75.8855	857
-473.619	76.3282	862
-467.924	75.7084	855
-461.715	75	847
-457.169	74.5572	842
-453.186	74.203	838
-454.606	74.7343	844
-456	75.2656	850
-456.3	75.6198	854
-451.793	75.1771	849
-451.018	75.3542	851
-448.651	75.2656	850
-448.39	75.5313	853
-449.687	76.0625	859
-444.702	75.5313	853
-440.782	75.1771	849
-435.327	74.5572	842
-427.844	73.5832	831
-421.946	72.8748	823
-421.698	73.1405	826
-427.03	74.3801	840
-430.276	75.2656	850
-429.951	75.5313	853
-427.103	75.3542	851
-419.267	74.2916	839
-418.448	74.4687	841
-421.584	75.3542	851
-422.704	75.8855	857
-423.307	76.3282	862
-420.466	76.1511	860
-418.606	76.1511	860
-418.686	76.5053	864
-414.406	76.0625	859
-412.549	76.0625	859
-409.258	75.7969	856
-408.835	76.0625	859
-404.609	75.6198	854
-400.877	75.2656	850
-394.345	74.3801	840
-388.323	73.5832	831
-387.922	73.8489	834
-387.508	74.1145	837
-389.385	74.8229	845
-393.063	75.8855	857
-393.036	76.2396	861
-390.72	76.1511	860
-385.696	75.5313	853
-377.102	74.203	838
-368.125	72.7863	822
-360.554	71.6352	809
-360.58	71.9893	813
-360.588	72.3435	817
-371.119	74.8229	845
-375.411	76.0625	859
-373.119	75.974	858
-364.774	74.6458	843
-361.229	74.2916	839
-355.132	73.4061	829
-349.503	72.6092	820
-344.338	71.9008	812
-343.427	72.0779	814
-347.544	73.3176	828
-346.589	73.4947	830
-343.133	73.1405	826
-342.174	73.3176	828
-341.206	73.4947	830
-340.639	73.7603	833
-340.465	74.1145	837
-333.8	73.0519	825
-327.993	72.1664	815
-323.429	71.5466	808
-321.682	71.5466	808
-321.123	71.8123	811
-322.914	72.6092	820
-324.275	73.3176	828
-324.432	73.7603	833
-324.955	74.2916	839
-323.527	74.3801	840
-316.349	73.1405	826
-310.375	72.1664	815
-302.554	70.7497	799
-299.697	70.484	796
-301.346	71.281	805
-302.955	72.0779	814
-305.636	73.1405	826
-305.322	73.4947	830
-303.527	73.4947	830
-302.097	73.5832	831
-301.023	73.7603	833
-298.504	73.5832	831
-294.208	72.9634	824
-290.653	72.5206	819
-285.708	71.7237	810
-288.163	72.7863	822
-282.206	71.7237	810
-278.031	71.1039	803
-279.048	71.8123	811
-280.03	72.5206	819
-281.317	73.3176	828
-277.502	72.7863	822
-273.377	72.1664	815
-273.281	72.6092	820
-272.833	72.9634	824
-272.697	73.4061	829
-268.944	72.8748	823
-267.489	72.9634	824
-267.643	73.4947	830
-265.208	73.3176	828
-267.872	74.5572	842
-269.212	75.4427	852
-267.998	75.6198	854
-265.528	75.4427	852
-262.758	75.1771	849
-259.693	74.8229	845
-255.12	74.0259	836
-251.798	73.5832	831
-249.099	73.3176	828
-248.504	73.6718	832
-247.595	73.9374	835
-244.024	73.4061	829
-240.478	72.8748	823
-236.379	72.1664	815
-233.466	71.8123	811
-229.141	71.0153	802
-227.408	71.0153	802
-227.081	71.4581	807
-228.129	72.3435	817
-228.302	72.9634	824
-228.995	73.7603	833
-225.83	73.3176	828
-223.499	73.1405	826
-222.251	73.3176	828
-219.928	73.1405	826
-217.35	72.8748	823
-215.047	72.6977	821
-212.233	72.3435	817
-210.725	72.4321	818
-213.555	74.0259	836
-213.267	74.5572	842
-210.945	74.3801	840
-207.386	73.7603	833
-201.39	72.255	816
-196.446	71.1039	803
-194.467	71.0153	802
-191.772	70.6611	798
-189.809	70.5726	797
-187.85	70.484	796
-186.363	70.5726	797
-185.335	70.8382	800
-184.524	71.1924	804
-181.422	70.6611	798
-182.399	71.7237	810
-182.209	72.3435	817
-180.222	72.255	816
-176.709	71.5466	808
-174.096	71.1924	804
-172.144	71.1039	803
-172.105	71.8123	811
-172.873	72.8748	823
-170.886	72.7863	822
-166.64	71.7237	810
-162.65	70.7497	799
-159.916	70.3069	794
-158.996	70.6611	798
-157.074	70.5726	797
-155.936	70.8382	800
-154.978	71.1924	804
-153.621	71.3695	806
-152.632	71.7237	810
-150.323	71.4581	807
-147.289	70.8382	800
-144.65	70.3955	795
-142.572	70.2184	793
-141.213	70.3955	795
-140.372	70.8382	800
-138.469	70.7497	799
-135.373	70.0413	791
-131.635	68.9787	779
-130.452	69.2444	782
-129.749	69.7757	788
-128.371	69.9528	790
-127.144	70.2184	793
-127.17	71.1924	804
-125.432	71.1924	804
-124.001	71.3695	806
-122.107	71.281	805
-120.367	71.281	805
-117.153	70.3955	795
-113.692	69.3329	783
-117.292	72.6092	820
-115.238	72.4321	818
-111.943	71.4581	807
-110.336	71.5466	808
-109.53	72.1664	815
-109.751	73.4947	830
-108.477	73.8489	834
-106.547	73.7603	833
-104.494	73.5832	831
-102.327	73.3176	828
-99.2017	72.3435	817
-97.0778	72.0779	814
-95.3182	72.0779	814
-93.0988	71.7237	810
-91.1222	71.5466	808
-89.4862	71.6352	809
-87.6289	71.5466	808
-85.7759	71.4581	807
-84.3438	71.7237	810
-82.6948	71.8123	811
-80.8418	71.7237	810
-78.7979	71.4581	807
-77.0534	71.4581	807
-75.5889	71.7237	810
-74.2937	72.1664	815
-72.2649	71.9008	812
-69.1202	70.484	796
-67.0608	70.1298	792
-65.6788	70.484	796
-64.1991	70.7497	799
-62.3937	70.6611	798
-60.1365	70.0413	791
-58.205	69.7757	788
-56.86	70.2184	793
-56.0498	71.3695	806
-54.7791	71.9893	813
-52.6956	71.5466	808
-51.075	71.7237	810
-49.5676	72.0779	814
-47.808	72.0779	814
-45.8221	71.7237	810
-43.9078	71.4581	807
-42.4768	71.9893	813
-40.4188	71.4581	807
-38.6743	71.4581	807
-36.9298	71.4581	807
-35.4469	71.9893	813
-33.8138	72.255	816
-31.0286	69.9528	790
-28.7641	68.6245	775
-27.0539	68.536	774
-25.7086	69.4215	784
-24.1057	69.6871	787
-22.4329	69.7757	788
-20.6506	69.51	785
-19.0985	70.0413	791
-17.4985	70.484	796
-15.7381	70.3069	794
-14.1453	70.9268	801
-12.3673	70.6611	798
-10.7356	71.281	805
-8.98424	71.1924	804
-7.2282	71.0153	802
-5.48765	70.9268	801
-3.77488	71.281	805
-2.03722	71.3695	806
-0.297077	71.9008	812
1.45644	71.8123	811
3.23729	72.4321	818
4.97498	71.9893	813
6.74073	72.0779	814
8.50037	72.0779	814
10.134	71.1924	804
11.8424	71.0153	802
13.2884	69.51	785
14.7372	68.3589	772
16.4485	68.536	774
18.3324	69.3329	783
20.3575	70.484	796
22.3833	71.4581	807
24.1278	71.4581	807
25.9364	71.6352	809
27.5484	71.281	805
28.9975	70.5726	797
30.2578	69.51	785
32.0769	69.7757	788
34.3805	71.0153	802
36.5645	71.9008	812
38.2254	71.7237	810
39.9271	71.6352	809
42.191	72.5206	819
44.0688	72.6977	821
45.6761	72.4321	818
47.0384	71.8123	811
48.4907	71.3695	806
50.233	71.3695	806
51.8464	71.1924	804
53.0513	70.484	796
54.1527	69.6871	787
55.9959	69.8642	789
57.9209	70.1298	792
60.0094	70.5726	797
61.5774	70.3955	795
62.9775	70.0413	791
64.7692	70.1298	792
66.7331	70.3955	795
68.6239	70.5726	797
70.3468	70.5726	797
71.6175	70.1298	792
73.4222	70.2184	793
74.5679	69.6871	787
76.1723	69.5986	786
78.3668	70.0413	791
80.4816	70.3955	795
82.407	70.5726	797
84.0243	70.484	796
85.9605	70.6611	798
88.2349	71.1039	803
90.419	71.4581	807
91.4782	70.9268	801
92.5116	70.3955	795
93.2819	69.6871	787
95.1039	69.7757	788
97.2987	70.1298	792
98.8858	70.0413	791
100.469	69.9528	790
102.306	70.0413	791
103.753	69.8642	789
105.592	69.9528	790
107.707	70.2184	793
109.559	70.3069	794
108.753	68.7131	776
110.857	68.9787	779
111.386	68.2703	771
112.466	67.9162	767
113.677	67.6505	764
116.537	68.3589	772
118.052	68.2703	771
121.427	69.2444	782
122.96	69.1558	781
123.85	68.7131	776
124.557	68.1818	770
126.714	68.4474	773
128.052	68.2703	771
129.719	68.2703	771
131.897	68.536	774
134.778	69.1558	781
136.292	69.0673	780
137.27	68.7131	776
139.485	68.9787	779
142.256	69.51	785
143.77	69.4215	784
143.98	68.7131	776
144.532	68.1818	770
145.626	67.9162	767
151.893	70.0413	791
158.069	72.0779	814
160.418	72.3435	817
161.192	71.9008	812
159.335	70.3069	794
160.443	70.0413	791
162.153	70.0413	791
163.863	70.0413	791
165.782	70.1298	792
167.494	70.1298	792
169.42	70.2184	793
172.86	70.9268	801
175.028	71.1039	803
176.764	71.1039	803
175.387	69.8642	789
174.848	68.9787	779
176.306	68.8902	778
179.36	69.4215	784
181.517	69.5986	786
184.382	70.0413	791
186.797	70.3069	794
189.938	70.8382	800
191.428	70.7497	799
193.88	71.0153	802
195.614	71.0153	802
198.086	71.281	805
199.33	71.1039	803
200.565	70.9268	801
200.529	70.3069	794
201.226	69.9528	790
202.42	69.7757	788
204.642	69.9528	790
209.745	71.1039	803
215.958	72.6092	820
216.403	72.1664	815
217.629	71.9893	813
219.927	72.1664	815
220.056	71.6352	809
221.805	71.6352	809
224.659	71.9893	813
228.088	72.5206	819
227.613	71.8123	811
228.235	71.4581	807
228.269	70.9268	801
228.278	70.3955	795
229.129	70.1298	792
236.379	71.8123	811
239.013	72.0779	814
242.843	72.6977	821
246.703	73.3176	828
251.194	74.1145	837
255.119	74.7343	844
256.335	74.5572	842
256.929	74.203	838
247.625	71.0153	802
248.426	70.7497	799
251.719	71.1924	804
243.999	68.536	774
246.942	68.8902	778
251.5	69.6871	787
254.81	70.1298	792
257.494	70.3955	795
260.19	70.6611	798
262.244	70.7497	799
266.944	71.5466	808
267.361	71.1924	804
262.739	69.51	785
263.426	69.2444	782
266.472	69.5986	786
271.583	70.484	796
270.901	69.8642	789
271.224	69.51	785
274.659	69.9528	790
277.067	70.1298	792
279.835	70.3955	795
281.554	70.3955	795
286.123	71.1039	803
289.292	71.4581	807
290.316	71.281	805
290.242	70.8382	800
291.971	70.8382	800
293.333	70.7497	799
298.015	71.4581	807
300.874	71.7237	810
294.405	69.7757	788
290.472	68.4474	773
291.765	68.3589	772
297.235	69.2444	782
300.072	69.51	785
310.611	71.5466	808
314.29	71.9893	813
317.214	72.255	816
309.206	70.0413	791
303.054	68.2703	771
304.326	68.1818	770
307.977	68.6245	775
311.251	68.9787	779
314.943	69.4215	784
315.426	69.1558	781
314.678	68.6245	775
312.272	67.7391	765
311.874	67.2963	760
313.929	67.3849	761
320.55	68.4474	773
325.556	69.1558	781
330.596	69.8642	789
332.723	69.9528	790
334.431	69.9528	790
336.564	70.0413	791
339.557	70.3069	794
337.835	69.5986	786
334.782	68.6245	775
336.023	68.536	774
338.133	68.6245	775
339.37	68.536	774
341.043	68.536	774
344.487	68.8902	778
348.394	69.3329	783
352.769	69.8642	789
354.475	69.8642	789
356.18	69.8642	789
357.886	69.8642	789
359.136	69.7757	788
359.465	69.51	785
359.782	69.2444	782
357.775	68.536	774
358.519	68.3589	772
362.054	68.7131	776
362.794	68.536	774
363.055	68.2703	771
363.302	68.0047	768
365.913	68.1818	770
367.577	68.1818	770
371.64	68.6245	775
374.278	68.8016	777
375.958	68.8016	777
382.012	69.5986	786
384.687	69.7757	788
385.41	69.5986	786
389.079	69.9528	790
392.271	70.2184	793
396.469	70.6611	798
400.19	71.0153	802
400.42	70.7497	799
394.598	69.4215	784
393.26	68.8902	778
394.942	68.8902	778
404.271	70.2184	793
406.497	70.3069	794
410.784	70.7497	799
414.06	71.0153	802
413.201	70.5726	797
402.43	68.4474	773
403.055	68.2703	771
407.346	68.7131	776
412.714	69.3329	783
418.64	70.0413	791
422.476	70.3955	795
423.661	70.3069	794
425.913	70.3955	795
427.631	70.3955	795
428.81	70.3069	794
429.442	70.1298	792
431.154	70.1298	792
426.854	69.1558	781
421.409	68.0047	768
413.704	66.4994	751
416.434	66.6765	753
427.5	68.1818	770
438.64	69.6871	787
442.579	70.0413	791
443.166	69.8642	789
442.616	69.51	785
441.483	69.0673	780
443.169	69.0673	780
444.855	69.0673	780
443.679	68.6245	775
442.481	68.1818	770
444.145	68.1818	770
443.494	67.8276	766
450.961	68.7131	776
452.639	68.7131	776
451.389	68.2703	771
453.055	68.2703	771
452.363	67.9162	767
456.981	68.3589	772
455.679	67.9162	767
456.145	67.7391	765
456.601	67.562	763
455.848	67.2078	759
455.681	66.9421	756
458.525	67.1192	758
461.378	67.2963	760
467.895	68.0047	768
469.555	68.0047	768
468.761	67.6505	764
467.949	67.2963	760
465.267	66.6765	753
465.655	66.4994	751
467.278	66.4994	751
470.15	66.6765	753
471.778	66.6765	753
-601.809	74.0188	816
-603.721	74.4723	821
-608.545	75.2887	830
-606.751	75.2887	830
-610.788	76.0144	838
-611.156	76.2865	841
-589.776	73.8374	814
-593.073	74.4723	821
-591.298	74.4723	821
-611.783	77.2843	852
-617.816	78.2821	863
-620.947	78.9171	870
-613.373	78.1914	862
-607.963	77.7379	857
-606.11	77.7379	857
-610.604	78.5542	866
-595.376	76.8308	847
-596.348	77.1936	851
-591.714	76.8308	847
-591.972	77.1029	850
-590.135	77.1029	850
-590.374	77.375	853
-589.91	77.5564	855
-581.184	76.6494	845
-575.929	76.1958	840
-556.343	73.8374	814
-555.946	74.0188	816
-554.182	74.0188	816
-558.511	74.8352	825
-562.801	75.6516	834
-565.034	76.1958	840
-560.536	75.833	836
-556.055	75.4701	832
-552.924	75.2887	830
-551.13	75.2887	830
-549.336	75.2887	830
-548.201	75.3794	831
-541.802	74.7445	824
-540.021	74.7445	824
-540.2	75.0166	827
-539.714	75.198	829
-539.868	75.4701	832
-528.369	74.1095	817
-527.892	74.2909	819
-526.122	74.2909	819
-526.272	74.563	822
-526.409	74.8352	825
-526.534	75.1073	828
-526.011	75.2887	830
-524.848	75.3794	831
-526.199	75.833	836
-523.138	75.6516	834
-520.084	75.4701	832
-513.302	74.7445	824
-509.659	74.4723	821
-497.986	73.021	805
-496.246	73.021	805
-491.434	72.5674	800
-492.766	73.021	805
-495.905	73.7467	813
-497.187	74.2002	818
-497.235	74.4723	821
-500.289	75.198	829
-507.516	76.5586	844
-509.886	77.1936	851
-505.061	76.7401	846
-497.879	75.9237	837
-495.477	75.833	836
-493.67	75.833	836
-488.921	75.3794	831
-481.849	74.563	822
-479.488	74.4723	821
-477.713	74.4723	821
-474.779	74.2909	819
-479.361	75.2887	830
-482.746	76.1051	839
-488.384	77.2843	852
-487.684	77.4657	854
-481.287	76.7401	846
-476.624	76.2865	841
-468.596	75.2887	830
-467.927	75.4701	832
-471.17	76.2865	841
-469.352	76.2865	841
-468.646	76.4679	843
-462.947	75.833	836
-458.934	75.4701	832
-455.487	75.198	829
-449.864	74.563	822
-443.181	73.7467	813
-436.537	72.9303	804
-438.044	73.4745	810
-444.372	74.8352	825
-449.026	75.9237	837
-447.217	75.9237	837
-446.472	76.1051	839
-442.538	75.7423	835
-438.622	75.3794	831
-436.826	75.3794	831
-435.553	75.4701	832
-434.276	75.5608	833
-429.36	75.0166	827
-424.987	74.563	822
-417.547	73.5652	811
-413.23	73.1117	806
-410.977	73.021	805
-415.337	74.1095	817
-418.633	75.0166	827
-418.358	75.2887	830
-411.545	74.3816	820
-408.773	74.2002	818
-409.492	74.6537	823
-414.153	75.833	836
-416.785	76.6494	845
-414.467	76.5586	844
-410.687	76.1958	840
-405.464	75.5608	833
-402.694	75.3794	831
-401.863	75.5608	833
-401.503	75.833	836
-401.608	76.1958	840
-399.792	76.1958	840
-396.081	75.833	836
-390.973	75.198	829
-385.894	74.563	822
-381.781	74.1095	817
-379.55	74.0188	816
-378.712	74.2002	818
-379.708	74.7445	824
-383.89	75.9237	837
-382.993	76.1051	839
-378.908	75.6516	834
-373.036	74.8352	825
-365.402	73.6559	812
-360.512	73.021	805
-352.978	71.8418	792
-349.048	71.3882	787
-350.878	72.1139	795
-353.112	72.9303	804
-354.433	73.5652	811
-352.68	73.5652	811
-352.658	73.9281	815
-352.188	74.2002	818
-347.421	73.5652	811
-343.11	73.021	805
-340.098	72.7489	802
-338.786	72.8396	803
-342.087	73.9281	815
-339.908	73.8374	814
-337.317	73.6559	812
-335.149	73.5652	811
-332.573	73.3838	809
-330.824	73.3838	809
-329.076	73.3838	809
-323.685	72.5674	800
-320.346	72.2046	796
-319.826	72.4767	799
-319.691	72.8396	803
-319.144	73.1117	806
-318.189	73.2931	808
-316.05	73.2024	807
-315.864	73.5652	811
-312.949	73.2931	808
-312.743	73.6559	812
-309.838	73.3838	809
-305.424	72.7489	802
-299.525	71.7511	791
-296.309	71.3882	787
-294.233	71.2975	786
-295.884	72.1139	795
-297.125	72.8396	803
-296.861	73.2024	807
-294.751	73.1117	806
-287.919	71.8418	792
-282.593	70.9347	782
-281.262	71.0254	783
-279.926	71.1161	784
-277.877	71.0254	783
-278.653	71.6603	790
-279.399	72.2953	797
-277.328	72.2046	796
-274.222	71.8418	792
-273.542	72.1139	795
-273.533	72.5674	800
-274.182	73.2024	807
-273.451	73.4745	810
-269.352	72.8396	803
-268.949	73.2024	807
-268.529	73.5652	811
-264.802	73.021	805
-261.428	72.5674	800
-259.698	72.5674	800
-257.969	72.5674	800
-256.56	72.6581	801
-251.011	71.5696	789
-256.889	73.7467	813
-253.562	73.2931	808
-254.309	74.0188	816
-254.402	74.563	822
-253.854	74.9259	826
-250.543	74.4723	821
-245.738	73.5652	811
-242.18	73.021	805
-240.738	73.1117	806
-238.106	72.8396	803
-235.782	72.6581	801
-234.05	72.6581	801
-230.288	72.0232	794
-227.42	71.6603	790
-225.141	71.4789	788
-222.304	71.1161	784
-221.172	71.2975	786
-222.823	72.386	798
-222.483	72.8396	803
-221.023	72.9303	804
-217.103	72.2046	796
-217.005	72.7489	802
-215.003	72.6581	801
-214.07	72.9303	804
-212.068	72.8396	803
-209.809	72.6581	801
-207.038	72.2953	797
-203.512	71.6603	790
-206.147	73.2024	807
-206.682	74.0188	816
-203.913	73.6559	812
-199.419	72.6581	801
-194.479	71.4789	788
-190.819	70.7533	780
-188.89	70.6625	779
-187.687	70.844	781
-185.761	70.7533	780
-184.074	70.7533	780
-182.622	70.844	781
-182.092	71.2975	786
-179.934	71.1161	784
-178.012	71.0254	783
-178.346	71.8418	792
-177.972	72.386	798
-176.909	72.6581	801
-174.084	72.2046	796
-169.116	70.844	781
-166.999	70.6625	779
-166.376	71.1161	784
-164.261	70.9347	782
-162.155	70.7533	780
-159.44	70.2997	775
-157.154	70.0276	772
-154.478	69.574	767
-153.816	70.0276	772
-154.906	71.2975	786
-154.572	71.9325	793
-153.629	72.2953	797
-148.094	70.4811	777
-145.095	69.8462	770
-142.685	69.4833	766
-143.239	70.5718	778
-142.103	70.844	781
-140.055	70.6625	779
-138.016	70.4811	777
-135.634	70.1183	773
-132.923	69.574	767
-129.896	68.8484	759
-127.073	68.2134	752
-126.281	68.6669	757
-126.127	69.4833	766
-125.283	69.9369	771
-122.975	69.574	767
-121.317	69.574	767
-120.595	70.1183	773
-121.54	71.6603	790
-120.287	71.9325	793
-115.732	70.209	774
-113.027	69.574	767
-111.805	69.8462	770
-110.283	69.9369	771
-108.898	70.1183	773
-108.476	70.9347	782
-107.604	71.4789	788
-106.573	71.9325	793
-104.859	71.9325	793
-102.234	71.2975	786
-100.663	71.3882	787
-98.7101	71.2068	785
-96.766	71.0254	783
-95.4376	71.2975	786
-94.4541	71.8418	792
-92.8591	71.9325	793
-91.1448	71.9325	793
-89.3178	71.8418	792
-87.9376	72.1139	795
-86.219	72.1139	795
-84.713	72.2953	797
-83.1984	72.4767	799
-81.6751	72.6581	801
-79.6442	72.386	798
-77.138	71.6603	790
-74.189	70.4811	777
-72.696	70.6625	779
-71.4678	71.1161	784
-69.595	70.9347	782
-67.9045	70.9347	782
-66.2988	71.0254	783
-65.2662	71.7511	791
-63.8777	72.1139	795
-61.9246	71.8418	792
-59.5283	71.0254	783
-57.2447	70.2997	775
-55.2826	69.9369	771
-53.4768	69.7554	769
-52.4209	70.5718	778
-52.1086	72.4767	799
-51.012	73.3838	809
-49.5067	73.7467	813
-47.5731	73.4745	810
-45.4261	72.8396	803
-43.4182	72.386	798
-41.5886	72.2046	796
-39.7176	71.9325	793
-37.8117	71.5696	789
-36.1976	71.7511	791
-34.5749	71.9325	793
-32.0319	70.1183	773
-29.7718	68.7576	758
-28.1332	68.7576	758
-26.5645	68.9391	760
-25.1511	69.574	767
-23.7688	70.3904	776
-22.1482	70.5718	778
-20.3875	70.2997	775
-18.688	70.209	774
-17.0368	70.2997	775
-15.4606	70.7533	780
-13.7392	70.5718	778
-12.0108	70.2997	775
-10.3355	70.2997	775
-8.74958	71.0254	783
-7.09301	71.3882	787
-5.38489	71.2975	786
-3.70454	71.6603	790
-2.00184	71.8418	792
-0.28976	71.8418	792
1.41513	71.4789	788
3.12252	71.5696	789
4.7914	71.0254	783
6.54199	71.6603	790
8.24975	71.6603	790
9.97011	71.7511	791
11.6505	71.5696	789
13.1699	70.5718	778
14.5844	69.3019	764
16.2147	69.2112	763
17.9344	69.4833	766
19.7693	70.1183	773
21.6899	70.9347	782
23.5896	71.5696	789
25.2952	71.5696	789
26.9324	71.3882	787
28.1243	70.1183	773
29.3713	69.1205	762
31.0185	69.1205	762
32.7944	69.3926	765
34.313	69.1205	762
36.5737	70.2997	775
38.6932	71.1161	784
40.491	71.2975	786
42.1365	71.2068	785
44.0568	71.5696	789
45.7624	71.5696	789
47.4679	71.5696	789
49.2982	71.7511	791
50.8791	71.5696	789
52.7847	71.8418	792
54.3591	71.6603	790
56.0669	71.6603	790
58.0672	72.0232	794
59.9342	72.2046	796
61.5	72.0232	794
62.8979	71.6603	790
64.115	71.1161	784
65.6419	70.9347	782
66.9879	70.5718	778
68.9345	70.844	781
70.2611	70.4811	777
71.8482	70.3904	776
73.5257	70.3904	776
75.8816	71.0254	783
78.2677	71.6603	790
79.9754	71.6603	790
80.9594	71.0254	783
81.702	70.209	774
82.9443	69.8462	770
84.7187	69.9369	771
87.0577	70.4811	777
88.3947	70.209	774
88.7878	69.2112	763
90.3187	69.1205	762
92.2073	69.3019	764
94.4731	69.7554	769
96.5105	70.0276	772
98.9424	70.5718	778
101.4	71.1161	784
103.227	71.2068	785
104.522	70.9347	782
104.447	69.7554	769
104.73	68.8484	759
105.389	68.2134	752
107.869	68.7576	758
109.508	68.7576	758
110.999	68.6669	757
111.892	68.2134	752
113.669	68.3041	753
114.378	67.7598	747
116.924	68.3041	753
119.496	68.8484	759
121.137	68.8484	759
122.94	68.9391	760
125.074	69.2112	763
126.226	68.9391	760
128.037	69.0298	761
130.534	69.4833	766
132.362	69.574	767
133.496	69.3019	764
133.379	68.3948	754
132.681	67.2156	741
136.639	68.3948	754
139.369	68.9391	760
141.197	69.0298	761
143.03	69.1205	762
144.867	69.2112	763
145.94	68.9391	760
147.972	69.1205	762
150.208	69.3926	765
152.656	69.7554	769
153.917	69.574	767
157.4	70.3904	776
161.128	71.2975	786
163.241	71.4789	788
164.526	71.2975	786
165.591	71.0254	783
166.642	70.7533	780
169.192	71.1161	784
171.758	71.4789	788
172.141	70.9347	782
170.052	69.3926	765
168.339	68.032	750
169.734	67.9413	749
173.183	68.6669	757
177.822	69.8462	770
179.953	70.0276	772
182.798	70.4811	777
185.427	70.844	781
186.157	70.4811	777
188.32	70.6625	779
191.224	71.1161	784
192.919	71.1161	784
195.606	71.4789	788
196.559	71.2068	785
198.003	71.1161	784
199.443	71.0254	783
200.879	70.9347	782
200.238	70.1183	773
200.08	69.4833	766
201.736	69.4833	766
205.782	70.2997	775
209.599	71.0254	783
213.18	71.6603	790
213.528	71.2068	785
217.418	71.9325	793
218.027	71.5696	789
219.454	71.4789	788
220.596	71.2975	786
221.73	71.1161	784
222.855	70.9347	782
223.971	70.7533	780
225.368	70.6625	779
228.801	71.2068	785
231.672	71.5696	789
230.124	70.5718	778
227.634	69.3019	764
229.286	69.3019	764
238.192	71.4789	788
241.113	71.8418	792
242.212	71.6603	790
239.289	70.2997	775
240.342	70.1183	773
239.508	69.3926	765
239.586	68.9391	760
239.642	68.4855	755
244.789	69.4833	766
250.306	70.5718	778
253.283	70.9347	782
249.757	69.4833	766
251.413	69.4833	766
255.381	70.1183	773
255.722	69.7554	769
253.703	68.7576	758
255.678	68.8484	759
259.692	69.4833	766
265.101	70.4811	777
263.69	69.6647	768
260.859	68.4855	755
260.753	68.032	750
263.773	68.3948	754
267.163	68.8484	759
269.512	69.0298	761
273.295	69.574	767
279.613	70.7533	780
285.627	71.8418	792
285.888	71.4789	788
286.132	71.1161	784
287.827	71.1161	784
289.521	71.1161	784
288.987	70.5718	778
286.186	69.4833	766
285.211	68.8484	759
285.718	68.5762	756
286.972	68.4855	755
287.458	68.2134	752
288.699	68.1227	751
290.322	68.1227	751
293.112	68.3948	754
292.006	67.7598	747
294.8	68.032	750
297.211	68.2134	752
300.427	68.5762	756
305.257	69.3019	764
310.926	70.209	774
314.215	70.5718	778
315.896	70.5718	778
316.762	70.3904	776
313.515	69.3019	764
312.691	68.7576	758
315.989	69.1205	762
319.303	69.4833	766
320.54	69.3926	765
322.615	69.4833	766
325.118	69.6647	768
327.629	69.8462	770
328.438	69.6647	768
326.66	68.9391	760
325.711	68.3948	754
325.17	67.9413	749
325.917	67.7598	747
334.547	69.2112	763
340.162	70.0276	772
343.602	70.3904	776
343.499	70.0276	772
344.274	69.8462	770
345.04	69.6647	768
347.603	69.8462	770
350.175	70.0276	772
352.299	70.1183	773
352.139	69.7554	769
351.961	69.3926	765
350.379	68.7576	758
351.553	68.6669	757
354.122	68.8484	759
355.763	68.8484	759
355.05	68.3948	754
354.787	68.032	750
356.884	68.1227	751
360.417	68.4855	755
362.528	68.5762	756
364.163	68.5762	756
365.313	68.4855	755
369.375	68.9391	760
373.459	69.3926	765
376.584	69.6647	768
379.229	69.8462	770
381.883	70.0276	772
386.036	70.4811	777
386.717	70.2997	775
385.887	69.8462	770
383.022	69.0298	761
383.656	68.8484	759
386.82	69.1205	762
386.937	68.8484	759
382.435	67.7598	747
378.908	66.8528	737
380.501	66.8528	737
386.242	67.5784	745
387.853	67.5784	745
384.758	66.762	736
388.974	67.2156	741
393.211	67.6691	746
396.941	68.032	750
403.876	68.9391	760
408.721	69.4833	766
415.198	70.2997	775
413.108	69.6647	768
410.988	69.0298	761
411.548	68.8484	759
406.657	67.7598	747
412.644	68.4855	755
409.337	67.6691	746
405.441	66.762	736
405.373	66.4899	733
413.065	67.4877	744
424.148	69.0298	761
428.591	69.4833	766
431.37	69.6647	768
433.03	69.6647	768
434.125	69.574	767
438.055	69.9369	771
436.87	69.4833	766
436.236	69.1205	762
435.585	68.7576	758
435.493	68.4855	755
435.388	68.2134	752
434.108	67.7598	747
433.39	67.397	743
436.752	67.6691	746
438.365	67.6691	746
442.337	68.032	750
445.734	68.3041	753
445.579	68.032	750
443.027	67.397	743
438.649	66.4899	733
432.425	65.3107	720
430.365	64.7664	714
428.279	64.2222	708
433.452	64.7664	714
441.697	65.7642	725
449.379	66.6713	735
455.262	67.3063	742
457.482	67.397	743
456.617	67.0342	739
458.214	67.0342	739
451.101	65.7642	725
447.673	65.0386	717
449.223	65.0386	717
-598.121	75.3182	811
-599.309	75.6897	815
-596.814	75.5968	814
-595.055	75.5968	814
-589.651	75.1325	809
-573.368	73.2751	789
-565.866	72.5321	781
-577.903	74.2966	800
-576.174	74.2966	800
-590.241	76.3398	822
-604.214	78.383	844
-606.672	78.9402	850
-568.544	74.2038	799
-555.467	72.7178	783
-553.774	72.7178	783
-551.376	72.625	782
-559.527	73.9252	796
-571.121	75.6897	815
-571.455	75.9683	818
-572.472	76.3398	822
-570.695	76.3398	822
-573.071	76.897	828
-574.041	77.2685	832
-568.116	76.7113	826
-536.848	72.7178	783
-537.206	72.9965	786
-536.869	73.1822	788
-535.166	73.1822	788
-539.555	74.018	797
-541.881	74.5753	803
-542.163	74.8539	806
-540.421	74.8539	806
-538.01	74.761	805
-530.275	73.9252	796
-530.546	74.2038	799
-528.819	74.2038	799
-528.411	74.3895	801
-531.282	75.0396	808
-529.535	75.0396	808
-529.095	75.2253	810
-527.995	75.3182	811
-518.455	74.2038	799
-514.788	73.9252	796
-516.935	74.4824	802
-515.201	74.4824	802
-511.547	74.2038	799
-505.353	73.5537	792
-504.277	73.6465	793
-503.83	73.8323	795
-504.638	74.2038	799
-511.722	75.504	813
-514.356	76.1541	820
-511.958	76.0612	819
-502.089	74.8539	806
-493.519	73.8323	795
-488.088	73.2751	789
-486.383	73.2751	789
-480.991	72.7178	783
-483.584	73.3679	790
-487.976	74.2966	800
-488.07	74.5753	803
-486.334	74.5753	803
-488.219	75.1325	809
-485.869	75.0396	808
-488.316	75.6897	815
-477.599	74.2966	800
-474.085	74.018	797
-475.326	74.4824	802
-474.183	74.5753	803
-470.094	74.2038	799
-470.125	74.4824	802
-467.223	74.2966	800
-465.494	74.2966	800
-463.764	74.2966	800
-467.233	75.1325	809
-469.512	75.7826	816
-467.748	75.7826	816
-465.984	75.7826	816
-465.358	75.9683	818
-464.156	76.0612	819
-460.127	75.6897	815
-458.366	75.6897	815
-461.646	76.5255	824
-459.865	76.5255	824
-456.972	76.3398	822
-454.087	76.1541	820
-450.66	75.8754	817
-448.344	75.7826	816
-439.466	74.5753	803
-433.914	73.9252	796
-428.393	73.2751	789
-428.85	73.6465	793
-433.061	74.6681	804
-437.224	75.6897	815
-437.599	76.0612	819
-431.04	75.2253	810
-425.049	74.4824	802
-415.926	73.1822	788
-408.965	72.2535	778
-410.425	72.8107	784
-414.465	73.8323	795
-410.669	73.4608	791
-409.993	73.6465	793
-410.339	74.018	797
-404.002	73.1822	788
-401.277	72.9965	786
-401.611	73.3679	790
-405.978	74.4824	802
-404.244	74.4824	802
-398.496	73.7394	794
-399.778	74.2966	800
-403.024	75.2253	810
-408.208	76.5255	824
-409.387	77.0828	830
-406.61	76.897	828
-401.398	76.2469	821
-395.729	75.504	813
-389.126	74.5753	803
-387.39	74.5753	803
-389.496	75.3182	811
-391.568	76.0612	819
-391.701	76.4327	823
-385.184	75.504	813
-380.125	74.8539	806
-377.914	74.761	805
-374.772	74.4824	802
-370.712	74.018	797
-368.989	74.018	797
-367.727	74.1109	798
-369.213	74.761	805
-366.56	74.5753	803
-362.098	74.018	797
-358.566	73.6465	793
-353.252	72.9036	785
-348.42	72.2535	778
-342.282	71.3248	768
-343.282	71.882	774
-346.464	72.9036	785
-346.963	73.3679	790
-342.633	72.8107	784
-341.373	72.9036	785
-342.705	73.5537	792
-343.577	74.1109	798
-342.708	74.2966	800
-339.274	73.9252	796
-336.281	73.6465	793
-334.145	73.5537	792
-334.112	73.9252	796
-333.644	74.2038	799
-331.917	74.2038	799
-329.776	74.1109	798
-328.051	74.1109	798
-323.464	73.4608	791
-319.313	72.9036	785
-314.784	72.2535	778
-312.7	72.1606	777
-311.02	72.1606	777
-310.137	72.3464	779
-308.849	72.4392	780
-304.406	71.7891	773
-299.993	71.139	766
-297.559	70.9533	764
-297.456	71.3248	768
-300.033	72.3464	779
-302.945	73.4608	791
-299.711	73.0893	787
-296.117	72.625	782
-292.167	72.0677	776
-290.49	72.0677	776
-288.812	72.0677	776
-288.985	72.5321	781
-288.032	72.7178	783
-288.9	73.3679	790
-285.374	72.9036	785
-278.979	71.6963	772
-275.155	71.139	766
-273.142	71.0462	765
-273.618	71.6034	771
-274.773	72.3464	779
-274.141	72.625	782
-272.102	72.5321	781
-269.375	72.2535	778
-266.661	71.9749	775
-263.276	71.5105	770
-261.951	71.6034	771
-263.323	72.4392	780
-262.978	72.8107	784
-260.617	72.625	782
-258.264	72.4392	780
-254.934	71.9749	775
-251.951	71.6034	771
-252.881	72.3464	779
-249.908	71.9749	775
-246.631	71.5105	770
-244.012	71.2319	767
-240.458	70.6747	761
-239.127	70.7675	762
-239.661	71.4176	769
-246.355	73.9252	796
-244.327	73.8323	795
-242.303	73.7394	794
-239.678	73.4608	791
-237.366	73.2751	789
-234.466	72.9036	785
-228.914	71.6963	772
-227.54	71.7891	773
-224.408	71.3248	768
-223.037	71.4176	769
-223.39	72.0677	776
-221.998	72.1606	777
-219.185	71.7891	773
-217.232	71.6963	772
-217.239	72.2535	778
-216.111	72.4392	780
-209.751	70.8604	763
-207.557	70.6747	761
-206.994	71.0462	765
-208.561	72.1606	777
-207.947	72.5321	781
-206.786	72.7178	783
-202.736	71.882	774
-201.063	71.882	774
-196.556	70.8604	763
-197.206	71.6963	772
-196.804	72.1606	777
-197.886	73.1822	788
-195.934	73.0893	787
-192.011	72.2535	778
-186.171	70.6747	761
-183.556	70.3032	757
-183.361	70.8604	763
-181.95	70.9533	764
-179.119	70.4889	759
-179.348	71.2319	767
-178.385	71.5105	770
-176.262	71.3248	768
-174.602	71.3248	768
-172.941	71.3248	768
-171.504	71.4176	769
-169.179	71.139	766
-166.867	70.8604	763
-164.785	70.6747	761
-163.783	70.9533	764
-161.07	70.4889	759
-158.379	70.0246	754
-156.542	69.9317	753
-156.148	70.4889	759
-153.897	70.2103	756
-152.464	70.3032	757
-151.226	70.4889	759
-150.768	71.0462	765
-150.478	71.6963	772
-147.267	70.9533	764
-138.754	67.6099	728
-136.05	67.0527	722
-134.117	66.867	720
-136.427	68.8173	741
-138.1	70.4889	759
-137.718	71.139	766
-134.818	70.4889	759
-132.651	70.2103	756
-129.631	69.4674	748
-126.987	68.9101	742
-124.538	68.4458	737
-123.112	68.5387	738
-122.669	69.1887	745
-121.383	69.3745	747
-120.089	69.5602	749
-118.154	69.3745	747
-117.943	70.2103	756
-116.309	70.2103	756
-113.764	69.6531	750
-111.695	69.3745	747
-110.374	69.5602	749
-109.772	70.2103	756
-109.282	70.9533	764
-108.194	71.3248	768
-106.534	71.3248	768
-104.6	71.139	766
-105.095	72.625	782
-102.875	72.2535	778
-99.7627	71.2319	767
-96.314	69.9317	753
-95.1892	70.3032	757
-94.665	71.139	766
-93.6163	71.6034	771
-92.3074	71.882	774
-90.1658	71.5105	770
-88.5013	71.5105	770
-87.0623	71.6963	772
-85.2829	71.6034	771
-82.9655	71.0462	765
-80.8866	70.6747	761
-79.2415	70.6747	761
-77.9024	70.9533	764
-76.151	70.8604	763
-74.0134	70.3961	758
-72.2794	70.3032	757
-71.1095	70.7675	762
-70.1004	71.4176	769
-68.6161	71.6034	771
-67.0362	71.6963	772
-65.8754	72.2535	778
-64.5236	72.625	782
-63.3153	73.1822	788
-61.5336	73.0893	787
-58.9961	72.0677	776
-56.2845	70.7675	762
-54.0636	70.0246	754
-52.3642	69.9317	753
-50.9385	70.2103	756
-49.7608	70.8604	763
-49.6248	73.0893	787
-48.3497	73.7394	794
-46.5746	73.6465	793
-44.1815	72.5321	781
-42.1124	71.882	774
-39.7077	70.5818	760
-38.165	70.7675	762
-36.9012	71.5105	770
-34.8248	70.6747	761
-32.7001	69.6531	750
-30.7888	69.003	743
-29.2612	69.1887	745
-27.7991	69.5602	749
-26.4247	70.2103	756
-24.9216	70.5818	760
-23.34	70.7675	762
-21.6358	70.5818	760
-19.9929	70.5818	760
-18.2776	70.3032	757
-16.6411	70.3032	757
-15.0245	70.3961	758
-13.3683	70.3032	757
-11.7474	70.3961	758
-10.2022	71.0462	765
-8.54844	71.0462	765
-6.85868	70.6747	761
-5.22732	70.8604	763
-3.62951	71.882	774
-1.96392	72.1606	777
-0.285004	72.3464	779
1.38999	71.882	774
3.04337	71.4176	769
4.69961	71.3248	768
6.35981	71.3248	768
8.06178	71.6963	772
9.78104	72.0677	776
11.3995	71.6963	772
13.0175	71.4176	769
14.4699	70.3961	758
15.9385	69.6531	750
17.5598	69.6531	750
19.0532	69.1887	745
20.8855	69.9317	753
22.7525	70.6747	761
24.5258	71.0462	765
26.1795	71.0462	765
27.7968	70.9533	764
29.0629	70.0246	754
30.4486	69.4674	748
31.937	69.1887	745
33.6826	69.4674	748
35.5827	70.0246	754
37.9036	71.3248	768
39.8213	71.7891	773
41.2239	71.3248	768
42.8841	71.3248	768
44.5443	71.3248	768
46.385	71.6034	771
47.8647	71.3248	768
49.5894	71.4176	769
51.785	72.1606	777
53.3958	72.0677	776
55.1443	72.1606	777
56.9702	72.3464	779
59.1812	72.9965	786
60.648	72.7178	783
61.7036	71.9749	775
62.5612	71.0462	765
63.2076	69.9317	753
64.4048	69.4674	748
66.1983	69.6531	750
67.8196	69.6531	750
69.9964	70.2103	756
72.7677	71.3248	768
75.397	72.2535	778
77.376	72.5321	781
78.6594	72.1606	777
79.8221	71.6963	772
80.5409	70.8604	763
81.544	70.3032	757
83.2903	70.3961	758
84.9288	70.3961	758
86.4532	70.3032	757
87.2751	69.6531	750
88.0667	69.003	743
90.0349	69.2816	746
92.3846	69.8388	752
94.7603	70.3961	758
97.5435	71.2319	767
99.9775	71.7891	773
99.2816	70.1175	755
100.513	69.8388	752
101.323	69.2816	746
102.798	69.1887	745
103.007	68.26	735
104.881	68.4458	737
107.052	68.8173	741
109.093	69.0959	744
110.106	68.7244	740
111.253	68.4458	737
113.306	68.7244	740
115.061	68.8173	741
116.977	69.003	743
118.584	69.003	743
120.513	69.1887	745
122.452	69.3745	747
124.232	69.4674	748
125.849	69.4674	748
128.318	69.9317	753
130.464	70.2103	756
131.225	69.746	751
131.079	68.8173	741
130.711	67.7957	730
132.108	67.7028	729
134.968	68.3529	736
137.857	69.003	743
140.027	69.2816	746
142.209	69.5602	749
141.908	68.6315	739
144.282	69.003	743
146.87	69.4674	748
149.678	70.0246	754
151.308	70.0246	754
151.315	69.2816	746
152.108	68.9101	742
154.126	69.0959	744
156.362	69.3745	747
159.035	69.8388	752
160.66	69.8388	752
163.365	70.3032	757
166.963	71.139	766
167.078	70.4889	759
163.606	68.3529	736
165.421	68.4458	737
167.241	68.5387	738
170.209	69.0959	744
171.587	69.003	743
172.96	68.9101	742
176.681	69.746	751
176.88	69.1887	745
180.886	70.1175	755
185.419	71.2319	767
187.077	71.2319	767
188.489	71.139	766
190.642	71.3248	768
191.05	70.8604	763
191.689	70.4889	759
191.802	69.9317	753
192.659	69.6531	750
193.503	69.3745	747
195.118	69.3745	747
196.732	69.3745	747
198.613	69.4674	748
201.033	69.746	751
204.545	70.3961	758
208.632	71.2319	767
210.838	71.4176	769
213.606	71.7891	773
214.441	71.5105	770
215.264	71.2319	767
217.205	71.3248	768
220.005	71.6963	772
221.674	71.6963	772
222.764	71.5105	770
222.971	71.0462	765
222.863	70.4889	759
221.546	69.5602	749
221.973	69.1887	745
224.784	69.5602	749
226.706	69.6531	750
229.849	70.1175	755
230.868	69.9317	753
225.703	67.8886	731
226.972	67.7957	730
230.742	68.4458	737
236.118	69.5602	749
237.42	69.4674	748
238.078	69.1887	745
236.15	68.1672	734
236.765	67.8886	731
238.019	67.7957	730
241.566	68.3529	736
245.8	69.0959	744
247.408	69.0959	744
248.013	68.8173	741
252.309	69.5602	749
256.98	70.3961	758
254.865	69.3745	747
255.107	69.003	743
253.949	68.26	735
253.104	67.6099	728
255.027	67.7028	729
260.475	68.7244	740
263.492	69.0959	744
265.813	69.2816	746
268.859	69.6531	750
270.48	69.6531	750
272.102	69.6531	750
277.738	70.6747	761
280.851	71.0462	765
279.181	70.2103	756
281.93	70.4889	759
282.823	70.3032	757
282.205	69.746	751
283.829	69.746	751
285.832	69.8388	752
284.4	69.0959	744
283.702	68.5387	738
284.91	68.4458	737
286.892	68.5387	738
288.488	68.5387	738
289.69	68.4458	737
291.678	68.5387	738
293.671	68.6315	739
296.068	68.8173	741
303.293	70.1175	755
311.791	71.6963	772
315.084	72.0677	776
313.496	71.3248	768
311.053	70.3961	758
309.804	69.746	751
308.11	69.003	743
307.632	68.5387	738
313.417	69.4674	748
314.613	69.3745	747
316.651	69.4674	748
320.821	70.0246	754
322.023	69.9317	753
322.791	69.746	751
322.687	69.3745	747
322.565	69.003	743
321.117	68.3529	736
327.093	69.2816	746
336.196	70.8604	763
339.617	71.2319	767
337.27	70.3961	758
335.332	69.6531	750
338.301	69.9317	753
340.38	70.0246	754
342.464	70.1175	755
343.64	70.0246	754
345.27	70.0246	754
340.919	68.8173	741
339.747	68.26	735
344.122	68.8173	741
345.724	68.8173	741
346.857	68.7244	740
346.574	68.3529	736
349.584	68.6315	739
350.706	68.5387	738
354.688	69.003	743
357.253	69.1887	745
358.382	69.0959	744
354.668	68.0743	733
356.253	68.0743	733
359.79	68.4458	737
366.287	69.3745	747
369.379	69.6531	750
368.527	69.1887	745
368.15	68.8173	741
370.75	69.003	743
