247.569	51.2171	494
248.637	51.2171	494
249.199	51.1134	493
250.773	51.2171	494
253.37	51.5281	497
255.98	51.8392	500
256.547	51.7355	499
257.626	51.7355	499
256.631	51.3208	495
258.221	51.4245	496
257.725	51.1134	493
258.791	51.1134	493
260.384	51.2171	494
262.51	51.4245	496
263.582	51.4245	496
264.655	51.4245	496
266.263	51.5281	497
266.799	51.4245	496
267.871	51.4245	496
268.401	51.3208	495
270.016	51.4245	496
271.634	51.5281	497
273.257	51.6318	498
274.334	51.6318	498
274.304	51.4245	496
271.49	50.6987	489
271.433	50.4914	487
272.485	50.4914	487
274.1	50.595	488
275.155	50.595	488
276.21	50.595	488
277.265	50.595	488
279.46	50.8024	490
280.519	50.8024	490
282.728	51.0097	492
283.215	50.9061	491
283.118	50.6987	489
283.594	50.595	488
285.816	50.8024	490
286.875	50.8024	490
287.346	50.6987	489
291.352	51.2171	494
295.972	51.8392	500
295.865	51.6318	498
295.749	51.4245	496
295.624	51.2171	494
298.494	51.5281	497
300.171	51.6318	498
300.642	51.5281	497
300.503	51.3208	495
300.354	51.1134	493
300.197	50.9061	491
301.259	50.9061	491
302.32	50.9061	491
302.763	50.8024	490
303.203	50.6987	489
302.393	50.3877	486
303.444	50.3877	486
303.868	50.284	485
-439.556	63.0806	596
-439.739	63.2922	598
-442.112	63.8214	603
-443.732	64.2448	607
-442.42	64.2448	607
-444.015	64.6681	611
-444.143	64.8798	613
-442.818	64.8798	613
-441.493	64.8798	613
-440.168	64.8798	613
-441.706	65.3032	617
-441.086	65.409	618
-440.462	65.5149	619
-439.124	65.5149	619
-430.006	64.3506	608
-428.692	64.3506	608
-428.783	64.5623	610
-431.669	65.1973	616
-431.036	65.3032	617
-426.917	64.8798	613
-422.814	64.4565	609
-420.114	64.2448	607
-413.972	63.5039	600
-407.172	62.6572	592
-406.578	62.763	593
-406.663	62.9747	595
-406.74	63.1864	597
-405.449	63.1864	597
-404.159	63.1864	597
-404.218	63.3981	599
-400.232	62.9747	595
-399.616	63.0806	596
-397.66	62.9747	595
-392.377	62.3397	589
-388.447	61.9163	585
-388.506	62.128	587
-387.237	62.128	587
-383.996	61.8105	584
-386.01	62.3397	589
-387.35	62.763	593
-389.974	63.3981	599
-392.573	64.0331	605
-391.911	64.1389	606
-390.601	64.1389	606
-389.291	64.1389	606
-387.981	64.1389	606
-386.033	64.0331	605
-383.454	63.8214	603
-375.813	62.763	593
-372.636	62.4455	590
-370.731	62.3397	589
-370.713	62.5513	591
-371.31	62.8689	594
-368.157	62.5513	591
-366.88	62.5513	591
-366.221	62.6572	592
-366.174	62.8689	594
-364.89	62.8689	594
-361.157	62.4455	590
-359.882	62.4455	590
-359.822	62.6572	592
-357.331	62.4455	590
-354.849	62.2338	588
-355.983	62.6572	592
-354.703	62.6572	592
-354.618	62.8689	594
-352.739	62.763	593
-351.457	62.763	593
-353.718	63.3981	599
-353.6	63.6097	601
-351.714	63.5039	600
-346.329	62.763	593
-341.556	62.128	587
-335.07	61.1754	578
-333.82	61.1754	578
-333.722	61.3871	580
-336.48	62.128	587
-336.925	62.4455	590
-336.218	62.5513	591
-333.807	62.3397	589
-330.84	62.0222	586
-331.261	62.3397	589
-331.108	62.5513	591
-329.83	62.5513	591
-329.109	62.6572	592
-327.275	62.5513	591
-325.446	62.4455	590
-324.17	62.4455	590
-319.064	61.7046	583
-316.714	61.493	581
-311.114	60.6462	573
-306.09	59.9054	566
-305.943	60.117	568
-309.007	60.9638	576
-312.037	61.8105	584
-311.306	61.9163	585
-310.042	61.9163	585
-307.722	61.7046	583
-305.936	61.5988	582
-305.201	61.7046	583
-304.983	61.9163	585
-304.238	62.0222	586
-302.971	62.0222	586
-298.1	61.2813	579
-292.747	60.4346	571
-289.981	60.117	568
-286.72	59.6937	564
-284.995	59.5878	563
-286.298	60.117	568
-287.579	60.6462	573
-288.839	61.1754	578
-289.58	61.5988	582
-281.882	60.2229	569
-281.638	60.4346	571
-283.35	61.0696	577
-282.592	61.1754	578
-280.856	61.0696	577
-280.093	61.1754	578
-279.808	61.3871	580
-278.074	61.2813	579
-274.91	60.8579	575
-272.239	60.5404	572
-269.108	60.117	568
-266.937	59.9054	566
-266.652	60.117	568
-266.826	60.4346	571
-263.731	60.0112	567
-261.117	59.6937	564
-258.054	59.2703	560
-255.926	59.0586	558
-256.546	59.482	562
-254.877	59.3762	561
-251.403	58.847	556
-251.101	59.0586	558
-251.239	59.3762	561
-250.472	59.482	562
-248.37	59.2703	560
-244.07	58.5294	553
-240.678	58.0002	548
-236.871	57.3652	542
-235.7	57.3652	542
-239.288	58.5294	553
-242.829	59.6937	564
-245.036	60.5404	572
-242.095	60.117	568
-235.778	58.847	556
-230.358	57.7886	546
-227.918	57.471	543
-229.25	58.1061	549
-228.478	58.2119	550
-227.289	58.2119	550
-225.689	58.1061	549
-225.32	58.3178	551
-224.129	58.3178	551
-224.152	58.6353	554
-224.967	59.1645	559
-224.159	59.2703	560
-222.152	59.0586	558
-220.55	58.9528	557
-218.952	58.847	556
-216.966	58.6353	554
-216.158	58.7411	555
-214.571	58.6353	554
-213.759	58.7411	555
-211.793	58.5294	553
-208.313	57.8944	547
-205.616	57.471	543
-206.701	58.1061	549
-205.888	58.2119	550
-203.955	58.0002	548
-201.29	57.5769	544
-198.643	57.1535	540
-196.379	56.836	537
-194.491	56.6243	535
-195.502	57.2594	541
-199.362	58.7411	555
-197.448	58.5294	553
-194.833	58.1061	549
-193.294	58.0002	548
-194.913	58.847	556
-191.273	58.1061	549
-185.239	56.6243	535
-182.018	55.9893	529
-180.19	55.7776	527
-179.391	55.8834	528
-179.6	56.3068	532
-178.45	56.3068	532
-177.966	56.5185	534
-178.798	57.1535	540
-179.934	57.8944	547
-177.444	57.471	543
-173.998	56.7302	536
-172.194	56.5185	534
-170.72	56.4126	533
-170.204	56.6243	535
-167.151	55.9893	529
-167.263	56.4126	533
-167.358	56.836	537
-166.197	56.836	537
-162.885	56.0951	530
-160.823	55.7776	527
-160.29	55.9893	529
-160.35	56.4126	533
-158.899	56.3068	532
-157.156	56.0951	530
-156.01	56.0951	530
-154.28	55.8834	528
-153.719	56.0951	530
-152.285	55.9893	529
-151.713	56.201	531
-149.148	55.6718	526
-147.448	55.4601	524
-146.036	55.3542	523
-147.676	56.4126	533
-146.249	56.3068	532
-144.553	56.0951	530
-143.137	55.9893	529
-141.725	55.8834	528
-140.317	55.7776	527
-139.97	56.0951	530
-138.825	56.0951	530
-137.419	55.9893	529
-135.503	55.6718	526
-134.877	55.8834	528
-133.482	55.7776	527
-133.347	56.201	531
-132.199	56.201	531
-130.558	55.9893	529
-129.659	56.0951	530
-128.756	56.201	531
-128.089	56.4126	533
-126.222	56.0951	530
-124.604	55.8834	528
-123.463	55.8834	528
-122.321	55.8834	528
-120.492	55.5659	525
-118.902	55.3542	523
-117.997	55.4601	524
-117.533	55.7776	527
-116.614	55.8834	528
-115.254	55.7776	527
-114.765	56.0951	530
-112.547	55.5659	525
-109.927	54.825	518
-107.967	54.4017	514
-106.856	54.4017	514
-106.362	54.7192	517
-105.651	54.9309	519
-104.127	54.7192	517
-101.813	54.0842	511
-99.7234	53.555	506
-98.8245	53.6608	507
-100.813	55.3542	523
-101.397	56.3068	532
-100.813	56.6243	535
-98.9111	56.201	531
-96.6586	55.5659	525
-93.8862	54.6134	516
-91.1526	53.6608	507
-90.2343	53.7666	508
-90.0134	54.2958	513
-89.0778	54.4017	514
-87.7955	54.2958	513
-86.0106	53.8725	509
-84.7435	53.7666	508
-82.9867	53.3433	504
-82.2222	53.555	506
-83.0524	54.825	518
-81.9326	54.825	518
-80.5008	54.6134	516
-79.3854	54.6134	516
-77.9666	54.4017	514
-76.5564	54.19	512
-74.5654	53.555	506
-74.0524	53.9783	510
-73.0929	54.0842	511
-72.4109	54.4017	514
-71.8547	54.825	518
-70.3253	54.5075	515
-68.9432	54.2958	513
-67.9665	54.4017	514
-66.4651	54.0842	511
-64.9768	53.7666	508
-64.6331	54.4017	514
-64.0163	54.825	518
-62.6537	54.6134	516
-61.0612	54.19	512
-60.1886	54.4017	514
-59.7671	55.0367	520
-58.3047	54.7192	517
-58.2932	55.7776	527
-57.4794	56.0951	530
-56.7588	56.5185	534
-55.6044	56.5185	534
-54.2462	56.3068	532
-52.3975	55.5659	525
-50.5791	54.825	518
-49.3638	54.7192	517
-48.2462	54.7192	517
-47.2198	54.825	518
-46.189	54.9309	519
-44.9802	54.825	518
-43.6065	54.5075	515
-42.4932	54.5075	515
-41.2995	54.4017	514
-39.7975	53.8725	509
-38.5451	53.6608	507
-37.3753	53.555	506
-36.4248	53.7666	508
-35.6049	54.19	512
-34.5654	54.2958	513
-33.3913	54.19	512
-32.2214	54.0842	511
-30.995	53.8725	509
-29.8359	53.7666	508
-28.7944	53.8725	509
-27.7485	53.9783	510
-26.5415	53.7666	508
-25.4934	53.8725	509
-24.441	53.9783	510
-23.2928	53.8725	509
-22.1053	53.6608	507
-21.2165	54.19	512
-20.1097	54.19	512
-18.8915	53.8725	509
-17.6514	53.4491	505
-16.5925	53.555	506
-15.4375	53.3433	504
-14.5188	53.9783	510
-13.4952	54.2958	513
-12.4104	54.4017	514
-11.2773	54.2958	513
-10.208	54.5075	515
-9.14766	54.825	518
-8.02789	54.825	518
-6.88145	54.6134	516
-5.73248	54.2958	513
-4.58747	53.8725	509
-3.47346	53.6608	507
-2.36809	53.4491	505
-1.27895	53.555	506
-0.186588	53.9783	510
0.912295	53.7666	508
2.0144	53.8725	509
3.11472	53.8725	509
4.19019	53.555	506
5.21092	52.8141	499
6.23919	52.3907	495
7.35354	52.7082	498
8.54857	53.4491	505
9.79295	54.2958	513
11.0294	54.9309	519
12.1748	55.0367	520
12.9152	53.4491	505
13.896	53.0258	501
15.0388	53.2374	503
16.2223	53.555	506
17.453	53.9783	510
18.4463	53.6608	507
19.5038	53.555	506
20.7604	53.9783	510
21.8629	53.9783	510
22.9203	53.8725	509
23.9263	53.6608	507
24.9729	53.555	506
26.0667	53.555	506
26.9459	53.1316	502
27.9752	53.0258	501
29.1742	53.2374	503
30.4421	53.555	506
31.3489	53.2374	503
32.5652	53.4491	505
33.9901	53.9783	510
35.4366	54.5075	515
36.479	54.4017	514
37.0782	53.6608	507
37.9483	53.3433	504
38.8829	53.1316	502
39.8088	52.9199	500
41.0532	53.1316	502
42.4742	53.555	506
44.0846	54.19	512
45.6327	54.7192	517
46.9312	54.9309	519
48.2383	55.1426	521
49.0803	54.825	518
49.4248	53.9783	510
49.7347	53.1316	502
51.326	53.6608	507
52.5254	53.7666	508
53.0958	53.2374	503
54.1831	53.2374	503
55.71	53.6608	507
57.2541	54.0842	511
59.044	54.7192	517
60.3943	54.9309	519
61.2792	54.7192	517
61.3106	53.7666	508
62.1631	53.555	506
62.5068	52.9199	500
63.4605	52.8141	499
64.5392	52.8141	499
66.1439	53.2374	503
67.4985	53.4491	505
68.8618	53.6608	507
70.3718	53.9783	510
72.0348	54.4017	514
72.8614	54.19	512
73.5347	53.8725	509
74.0485	53.4491	505
74.545	53.0258	501
75.1752	52.7082	498
76.558	52.9199	500
78.5705	53.555	506
79.8217	53.6608	507
80.4389	53.3433	504
80.5579	52.7082	498
81.3065	52.4966	496
82.7109	52.7082	498
84.4604	53.1316	502
86.2273	53.555	506
87.3211	53.555	506
87.8907	53.2374	503
88.9781	53.2374	503
90.7816	53.6608	507
91.6964	53.555	506
92.7902	53.555	506
93.513	53.3433	504
95.541	53.8725	509
96.8312	53.9783	510
98.1257	54.0842	511
98.8419	53.8725	509
99.3532	53.555	506
99.8515	53.2374	503
101.14	53.3433	504
102.838	53.6608	507
103.319	53.3433	504
105.029	53.6608	507
106.963	54.0842	511
108.913	54.5075	515
110.24	54.6134	516
110.492	54.19	512
111.163	53.9783	510
112.266	53.9783	510
112.701	53.6608	507
114.022	53.7666	508
114.44	53.4491	505
114.388	52.9199	500
114.545	52.4966	496
115.617	52.4966	496
117.395	52.8141	499
119.661	53.3433	504
121.949	53.8725	509
122.807	53.7666	508
124.149	53.8725	509
125.496	53.9783	510
126.35	53.8725	509
126.198	53.3433	504
127.793	53.555	506
128.632	53.4491	505
128.182	52.8141	499
127.707	52.179	493
128.511	52.0732	492
130.365	52.3907	495
132.763	52.9199	500
135.182	53.4491	505
138.972	54.5075	515
133.829	52.0732	492
133.522	51.544	487
134.574	51.544	487
137.02	52.0732	492
138.645	52.2849	494
139.995	52.3907	495
141.92	52.7082	498
143.284	52.8141	499
144.941	53.0258	501
147.19	53.4491	505
147.107	53.0258	501
147.007	52.6024	497
146.294	51.9674	491
145.254	51.2265	484
145.092	50.8031	480
147.347	51.2265	484
152.686	52.7082	498
155.615	53.3433	504
156.704	53.3433	504
156.854	53.0258	501
157.307	52.8141	499
157.433	52.4966	496
157.867	52.2849	494
157.969	51.9674	491
158.383	51.7557	489
158.788	51.544	487
159.184	51.3323	485
160.893	51.544	487
163.276	51.9674	491
164.338	51.9674	491
165.736	52.0732	492
166.46	51.9674	491
166.84	51.7557	489
170.3	52.4966	496
169.645	51.9674	491
168.968	51.4382	486
169.319	51.2265	484
171.421	51.544	487
174.244	52.0732	492
174.952	51.9674	491
173.862	51.3323	485
174.55	51.2265	484
174.871	51.0148	482
177.008	51.3323	485
178.79	51.544	487
182.428	52.2849	494
183.867	52.3907	495
184.19	52.179	493
184.88	52.0732	492
185.188	51.8615	490
185.487	51.6498	488
185.777	51.4382	486
186.059	51.2265	484
186.332	51.0148	482
186.985	50.909	481
187.634	50.8031	480
189.458	51.0148	482
190.105	50.909	481
190.747	50.8031	480
192.983	51.1206	483
194.831	51.3323	485
197.091	51.6498	488
197.334	51.4382	486
199.201	51.6498	488
201.076	51.8615	490
201.723	51.7557	489
201.536	51.4382	486
200.503	50.909	481
200.704	50.6973	479
203.846	51.2265	484
207.432	51.8615	490
211.044	52.4966	496
209.55	51.8615	490
207.601	51.1206	483
207.349	50.8031	480
210.123	51.2265	484
212.915	51.6498	488
214.408	51.7557	489
215.025	51.6498	488
215.194	51.4382	486
218.914	52.0732	492
221.319	52.3907	495
224.635	52.9199	500
224.813	52.7082	498
224.983	52.4966	496
225.143	52.2849	494
224.838	51.9674	491
225.439	51.8615	490
224.649	51.4382	486
224.771	51.2265	484
226.75	51.4382	486
223.582	50.4856	477
227.91	51.2265	484
229.902	51.4382	486
231.428	51.544	487
231.049	51.2265	484
230.656	50.909	481
229.769	50.4856	477
232.252	50.8031	480
233.29	50.8031	480
234.327	50.8031	480
233.403	50.3798	476
234.925	50.4856	477
236.451	50.5914	478
238.975	50.909	481
239.515	50.8031	480
239.049	50.4856	477
239.577	50.3798	476
244.65	51.2265	484
249.25	51.9674	491
249.801	51.8615	490
248.301	51.3323	485
251.406	51.7557	489
251.43	51.544	487
250.928	51.2265	484
249.371	50.6973	479
247.793	50.1681	474
247.767	49.9564	472
251.423	50.4856	477
254.042	50.8031	480
255.611	50.909	481
253.449	50.2739	475
260.369	51.4382	486
260.882	51.3323	485
263.011	51.544	487
264.606	51.6498	488
266.205	51.7557	489
268.355	51.9674	491
269.416	51.9674	491
269.927	51.8615	490
267.115	51.1206	483
267.049	50.909	481
267.531	50.8031	480
270.807	51.2265	484
272.415	51.3323	485
273.463	51.3323	485
273.38	51.1206	483
274.992	51.2265	484
276.038	51.2265	484
277.657	51.3323	485
278.705	51.3323	485
280.907	51.544	487
281.96	51.544	487
280.107	51.0148	482
280.566	50.909	481
281.606	50.909	481
282.058	50.8031	480
286.634	51.4382	486
291.828	52.179	493
292.3	52.0732	492
293.364	52.0732	492
295.026	52.179	493
295.491	52.0732	492
297.76	52.2849	494
297.013	51.9674	491
295.646	51.544	487
296.09	51.4382	486
297.14	51.4382	486
297.577	51.3323	485
298.01	51.2265	484
299.674	51.3323	485
300.722	51.3323	485
299.904	51.0148	482
300.946	51.0148	482
300.735	50.8031	480
-435.869	63.8288	591
-434.591	63.8288	591
-431.114	63.5048	588
-428.381	63.2888	586
-427.114	63.2888	586
-427.301	63.5048	588
-429.652	64.0448	593
-431.982	64.5848	598
-433.571	65.0168	602
-432.269	65.0168	602
-431.684	65.1248	603
-429.667	65.0168	602
-428.365	65.0168	602
-419.26	63.8288	591
-417.983	63.8288	591
-416.705	63.8288	591
-417.536	64.1528	594
-423.26	65.2328	604
-426.844	65.9888	611
-425.524	65.9888	611
-415.872	64.6928	599
-414.577	64.6928	599
-406.382	63.6128	589
-402.358	63.1808	585
-399.036	62.8568	582
-399.829	63.1808	585
-400.608	63.5048	588
-400.695	63.7208	590
-399.42	63.7208	590
-396.795	63.5048	588
-389.47	62.5328	579
-388.218	62.5328	579
-387.635	62.6408	580
-384.382	62.3168	577
-383.799	62.4248	578
-382.55	62.4248	578
-381.3	62.4248	578
-379.393	62.3168	577
-378.801	62.4248	578
-378.858	62.6408	580
-376.953	62.5328	579
-376.351	62.6408	580
-380.271	63.5048	588
-384.156	64.3688	596
-382.225	64.2608	595
-380.939	64.2608	595
-379.653	64.2608	595
-373.915	63.5048	588
-368.842	62.8568	582
-367.583	62.8568	582
-366.955	62.9648	583
-367.576	63.2888	586
-367.56	63.5048	588
-368.157	63.8288	591
-366.88	63.8288	591
-364.365	63.6128	589
-361.859	63.3968	587
-360.59	63.3968	587
-356.872	62.9648	583
-353.782	62.6408	580
-350.705	62.3168	577
-345.218	61.5608	570
-344.59	61.6688	571
-345.76	62.1008	575
-345.117	62.2088	576
-346.857	62.7488	581
-346.79	62.9648	583
-349.086	63.6128	589
-350.175	64.0448	593
-349.481	64.1528	594
-347.611	64.0448	593
-342.825	63.3968	587
-333.992	61.9928	574
-330.432	61.5608	570
-329.2	61.5608	570
-329.119	61.7768	572
-331.321	62.4248	578
-332.356	62.8568	582
-332.236	63.0728	584
-329.273	62.7488	581
-322.936	61.7768	572
-317.763	61.0208	565
-317.102	61.1288	566
-320.901	62.1008	575
-321.882	62.5328	579
-321.737	62.7488	581
-319.93	62.6408	580
-318.127	62.5328	579
-315.233	62.2088	576
-309.627	61.3448	568
-301.341	59.9408	555
-300.682	60.0488	556
-297.864	59.7248	553
-297.205	59.8328	554
-297.61	60.1568	557
-296.406	60.1568	557
-298.912	60.9128	564
-298.749	61.1288	566
-299.102	61.4528	569
-298.396	61.5608	570
-298.206	61.7768	572
-299.046	62.2088	576
-296.25	61.8848	573
-291.922	61.2368	567
-284.544	59.9408	555
-283.344	59.9408	555
-282.145	59.9408	555
-282.464	60.2648	558
-282.265	60.4808	560
-282.561	60.8048	563
-281.843	60.9128	564
-278.136	60.3728	559
-274.946	59.9408	555
-274.24	60.0488	556
-275.002	60.4808	560
-276.725	61.1288	566
-275.988	61.2368	567
-274.278	61.1288	566
-274.502	61.4528	569
-267.989	60.2648	558
-265.348	59.9408	555
-265.1	60.1568	557
-262.475	59.8328	554
-262.221	60.0488	556
-262.427	60.3728	559
-262.153	60.5888	561
-257.685	59.8328	554
-257.876	60.1568	557
-254.368	59.6167	552
-252.716	59.5087	551
-250.612	59.2927	549
-248.516	59.0767	547
-248.238	59.2927	549
-247.501	59.4007	550
-248.104	59.8328	554
-247.798	60.0488	556
-243.935	59.4007	550
-239.656	58.6447	543
-234.09	57.5647	533
-230.753	57.0247	528
-230.047	57.1327	529
-231.932	57.8887	536
-235.509	59.0767	547
-235.612	59.4007	550
-232.292	58.8607	545
-229.842	58.5367	542
-226.982	58.1047	538
-225.4	57.9967	537
-226.327	58.5367	542
-225.155	58.5367	542
-223.57	58.4287	541
-221.99	58.3207	540
-221.231	58.4287	541
-220.062	58.4287	541
-218.892	58.4287	541
-217.32	58.3207	540
-214.151	57.7807	535
-213.393	57.8887	536
-214.214	58.4287	541
-213.832	58.6447	543
-214.225	59.0767	547
-210.706	58.4287	541
-207.6	57.8887	536
-206.441	57.8887	536
-205.665	57.9967	537
-204.885	58.1047	538
-202.208	57.6727	534
-200.677	57.5647	533
-199.525	57.5647	533
-199.489	57.8887	536
-199.81	58.3207	540
-197.539	57.9967	537
-195.281	57.6727	534
-191.219	56.8087	526
-190.082	56.8087	526
-190.022	57.1327	529
-188.165	56.9167	527
-186.671	56.8087	526
-187.297	57.3487	531
-188.954	58.2127	539
-188.485	58.4287	541
-182.815	57.0247	528
-182.362	57.2407	530
-180.19	56.9167	527
-178.371	56.7007	525
-177.574	56.8087	526
-176.102	56.7007	525
-175.633	56.9167	527
-173.501	56.5927	524
-174.013	57.1327	529
-172.869	57.1327	529
-171.401	57.0247	528
-170.26	57.0247	528
-167.517	56.4847	523
-165.114	56.0527	519
-163.36	55.8367	517
-162.87	56.0527	519
-165.488	57.3487	531
-164.03	57.2407	530
-162.27	57.0247	528
-158.992	56.2687	521
-157.563	56.1607	520
-157.642	56.5927	524
-156.51	56.5927	524
-154.784	56.3767	522
-152.478	55.9447	518
-150.774	55.7287	516
-148.788	55.4047	513
-147.679	55.4047	513
-147.713	55.8367	517
-146.312	55.7287	516
-145.478	55.8367	517
-143.523	55.5127	514
-142.135	55.4047	513
-141.3	55.5127	514
-141.826	56.1607	520
-140.702	56.1607	520
-139.578	56.1607	520
-137.921	55.9447	518
-137.065	56.0527	519
-136.205	56.1607	520
-135.601	56.3767	522
-134.215	56.2687	521
-133.089	56.2687	521
-132.975	56.7007	525
-131.589	56.5927	524
-129.959	56.3767	522
-127.596	55.8367	517
-126.723	55.9447	518
-126.573	56.3767	522
-125.685	56.4847	523
-122.65	55.6207	515
-121.3	55.5127	514
-120.891	55.8367	517
-119.773	55.8367	517
-118.196	55.6207	515
-117.311	55.7287	516
-116.195	55.7287	516
-115.526	55.9447	518
-114.848	56.1607	520
-113.505	56.0527	519
-111.95	55.8367	517
-111.261	56.0527	519
-108.866	55.4047	513
-108.387	55.7287	516
-107.064	55.6207	515
-105.333	55.2967	512
-103.819	55.0807	510
-103.522	55.5127	514
-102.212	55.4047	513
-100.118	54.8647	508
-98.8245	54.7567	507
-97.9213	54.8647	508
-97.395	55.1887	511
-95.9134	54.9727	509
-94.068	54.5407	505
-92.9764	54.5407	505
-91.8847	54.5407	505
-90.0739	54.1087	501
-89.5238	54.4327	504
-89.838	55.2967	512
-88.9045	55.4047	513
-87.2821	55.0807	510
-85.3347	54.5407	505
-83.7426	54.2167	502
-81.8341	53.6767	497
-80.7598	53.6767	497
-79.6854	53.6767	497
-78.9274	53.8927	499
-78.6287	54.4327	504
-78.4623	55.0807	510
-77.2081	54.9727	509
-75.8088	54.7567	507
-73.5339	53.8927	499
-71.8744	53.4607	495
-71.6626	54.1087	501
-70.8613	54.3247	503
-69.774	54.3247	503
-68.6866	54.3247	503
-67.1961	54.0007	500
-65.983	53.8927	499
-64.6442	53.6767	497
-64.0814	54.1087	501
-62.8727	54.0007	500
-62.039	54.2167	502
-60.7109	54.0007	500
-58.5567	53.0287	491
-57.2612	52.8127	489
-56.2041	52.8127	489
-56.6131	54.2167	502
-55.4173	54.1087	501
-54.5512	54.3247	503
-53.3575	54.2167	502
-54.6673	56.7007	525
-52.9206	56.0527	519
-51.0002	55.1887	511
-49.2121	54.4327	504
-48.3135	54.6487	506
-47.4997	54.9727	509
-46.3994	54.9727	509
-45.2101	54.8647	508
-43.9382	54.6487	506
-42.5904	54.3247	503
-41.503	54.3247	503
-40.3354	54.2167	502
-38.9374	53.7847	498
-37.7849	53.6767	497
-36.6366	53.5687	496
-35.5644	53.5687	496
-34.4227	53.4607	495
-33.0157	52.9207	490
-31.826	52.7047	488
-30.7711	52.7047	488
-30.0816	53.3527	494
-29.0724	53.4607	495
-28.0024	53.4607	495
-26.9867	53.5687	496
-25.9668	53.6767	497
-25.0427	54.0007	500
-24.0097	54.1087	501
-22.9725	54.2167	502
-21.8437	54.1087	501
-20.8435	54.3247	503
-19.8347	54.5407	505
-18.6689	54.3247	503
-17.3718	53.6767	497
-16.2646	53.5687	496
-15.2537	53.7847	498
-14.3479	54.4327	504
-13.4163	55.0807	510
-12.3138	55.0807	510
-11.1674	54.8647	508
-10.089	54.9727	509
-9.00638	55.0807	510
-7.90391	55.0807	510
-6.81477	55.1887	511
-5.65426	54.6487	506
-4.55142	54.5407	505
-3.43235	54.1087	501
-2.33996	53.8927	499
-1.26884	54.2167	502
-0.184759	54.5407	505
0.906907	54.5407	505
1.99066	54.3247	503
3.06576	54.1087	501
4.1405	54.0007	500
5.19003	53.6767	497
6.2518	53.5687	496
7.33877	53.6767	497
8.447	53.8927	499
9.56388	54.1087	501
10.7107	54.4327	504
11.7767	54.3247	503
12.7618	53.8927	499
13.8405	53.8927	499
14.9192	53.8927	499
16.0299	54.0007	500
17.2477	54.4327	504
18.3008	54.3247	503
19.3496	54.2167	502
20.3941	54.1087	501
21.6057	54.4327	504
22.6502	54.3247	503
23.6431	54.1087	501
24.5287	53.6767	497
25.5516	53.5687	496
26.5701	53.4607	495
27.696	53.5687	496
28.8842	53.7847	498
30.0209	53.8927	499
30.9126	53.5687	496
31.7269	53.1367	492
32.9904	53.4607	495
34.4045	54.0007	500
35.4854	54.0007	500
36.6394	54.1087	501
37.6471	54.0007	500
38.2632	53.3527	494
39.0922	53.0287	491
40.2354	53.1367	492
41.7187	53.6767	497
43.0514	54.0007	500
44.397	54.3247	503
45.6652	54.5407	505
46.6643	54.4327	504
47.4695	54.1087	501
47.9711	53.4607	495
48.7439	53.1367	492
49.8075	53.1367	492
50.8711	53.1367	492
52.1457	53.3527	494
53.6445	53.7847	498
54.5013	53.5687	496
56.0217	54.0007	500
56.1889	53.1367	492
57.1361	53.0287	491
58.1975	53.0287	491
59.7416	53.4607	495
60.8117	53.4607	495
61.7567	53.3527	494
62.6974	53.2447	493
63.7632	53.2447	493
65.6179	53.8927	499
67.0976	54.2167	502
68.5902	54.5407	505
70.0958	54.8647	508
71.0538	54.7567	507
71.5806	54.3247	503
71.9456	53.7847	498
71.8491	52.9207	490
72.6107	52.7047	488
74.1185	53.0287	491
75.6393	53.3527	494
76.8624	53.4607	495
77.9325	53.4607	495
78.3641	53.0287	491
78.9402	52.7047	488
80.9787	53.3527	494
82.3788	53.5687	496
84.4604	54.2167	502
86.0569	54.5407	505
87.1485	54.5407	505
87.3665	54.0007	500
88.0936	53.7847	498
88.633	53.4607	495
89.3406	53.2447	493
90.4063	53.2447	493
92.5853	53.8927	499
93.664	53.8927	499
95.5021	54.3247	503
96.9735	54.5407	505
97.871	54.4327	504
98.5678	54.2167	502
98.8589	53.7847	498
99.3334	53.4607	495
100.403	53.4607	495
102.089	53.7847	498
102.751	53.5687	496
105.498	54.4327	504
107.433	54.8647	508
109.172	55.1887	511
109.198	54.6487	506
110.074	54.5407	505
111.165	54.5407	505
111.59	54.2167	502
112.002	53.8927	499
112.174	53.4607	495
112.1	52.9207	490
112.698	52.7047	488
113.519	52.5967	487
115.748	53.1367	492
117.999	53.6767	497
119.313	53.7847	498
121.357	54.2167	502
123.174	54.5407	505
124.265	54.5407	505
124.612	54.2167	502
123.694	53.3527	494
123.752	52.9207	490
124.556	52.8127	489
125.1	52.5967	487
125.375	52.2727	484
126.683	52.3807	485
128.521	52.7047	488
129.045	52.4887	486
131.434	53.0287	491
132.226	52.9207	490
131.109	52.0567	482
132.425	52.1647	483
133.745	52.2727	484
135.349	52.4887	486
135.277	52.0567	482
136.319	52.0567	482
137.646	52.1647	483
139.551	52.4887	486
140.023	52.2727	484
140.195	51.9487	481
140.648	51.7327	479
140.796	51.4086	476
141.527	51.3006	475
142.854	51.4086	476
144.789	51.7327	479
147.043	52.1647	483
153.299	54.0007	500
154.688	54.1087	501
155.15	53.8927	499
152.158	52.4887	486
150.687	51.6246	478
150.768	51.3006	475
152.434	51.5166	477
154.43	51.8407	480
156.44	52.1647	483
157.158	52.0567	482
158.2	52.0567	482
159.241	52.0567	482
160.283	52.0567	482
161.66	52.1647	483
162.704	52.1647	483
164.426	52.3807	485
164.792	52.1647	483
164.463	51.7327	479
165.844	51.8407	480
165.839	51.5166	477
166.52	51.4086	476
168.605	51.7327	479
171.765	52.3807	485
173.17	52.4887	486
173.862	52.3807	485
174.55	52.2727	484
174.871	52.0567	482
175.913	52.0567	482
176.587	51.9487	481
176.15	51.5166	477
176.81	51.4086	476
178.586	51.6246	478
180.747	51.9487	481
181.031	51.7327	479
183.206	52.0567	482
183.484	51.8407	480
184.137	51.7327	479
184.786	51.6246	478
185.042	51.4086	476
184.898	51.0846	473
186.706	51.3006	475
190.105	51.9487	481
191.542	52.0567	482
197.778	53.4607	495
197.241	53.0287	491
194.668	52.0567	482
195.71	52.0567	482
196.752	52.0567	482
198.614	52.2727	484
200.073	52.3807	485
200.707	52.2727	484
200.919	52.0567	482
201.123	51.8407	480
203.003	52.0567	482
206.162	52.5967	487
208.491	52.9207	490
209.123	52.8127	489
206.741	51.9487	481
205.189	51.3006	475
207.084	51.5166	477
210.733	52.1647	483
211.339	52.0567	482
211.5	51.8407	480
213.865	52.1647	483
215.799	52.3807	485
211.93	51.1926	474
213.853	51.4086	476
215.785	51.6246	478
217.725	51.8407	480
218.763	51.8407	480
221.174	52.1647	483
221.298	51.9487	481
219.565	51.3006	475
217.805	50.6526	469
217.419	50.3286	466
219.364	50.5446	468
221.788	50.8686	471
224.226	51.1926	474
225.725	51.3006	475
228.662	51.7327	479
227.779	51.3006	475
228.324	51.1926	474
229.833	51.3006	475
230.373	51.1926	474
230.422	50.9766	472
231.932	51.0846	473
232.462	50.9766	472
233.977	51.0846	473
235.497	51.1926	474
236.521	51.1926	474
237.546	51.1926	474
237.564	50.9766	472
237.068	50.6526	469
244.681	52.0567	482
246.743	52.2727	484
245.229	51.7327	479
242.666	50.9766	472
240.072	50.2206	465
241.077	50.2206	465
243.644	50.5446	468
244.133	50.4366	467
243.568	50.1126	464
247.206	50.6526	469
249.279	50.8686	471
248.703	50.5446	468
248.114	50.2206	465
250.726	50.5446	468
253.889	50.9766	472
255.99	51.1926	474
254.846	50.7606	470
255.317	50.6526	469
259.064	51.1926	474
260.637	51.3006	475
260.011	50.9766	472
263.244	51.4086	476
262.607	51.0846	473
264.744	51.3006	475
268.009	51.7327	479
270.73	52.0567	482
272.336	52.1647	483
273.38	52.1647	483
274.424	52.1647	483
275.468	52.1647	483
276.512	52.1647	483
277.556	52.1647	483
278.6	52.1647	483
279.644	52.1647	483
280.107	52.0567	482
281.149	52.0567	482
279.849	51.6246	478
281.47	51.7327	479
284.275	52.0567	482
285.317	52.0567	482
288.735	52.4887	486
289.786	52.4887	486
289.64	52.2727	484
291.887	52.4887	486
294.746	52.8127	489
292.779	52.2727	484
292.611	52.0567	482
292.434	51.8407	480
294.083	51.9487	481
293.896	51.7327	479
296.163	51.9487	481
297.82	52.0567	482
299.482	52.1647	483
299.282	51.9487	481
300.322	51.9487	481
300.109	51.7327	479
-433.656	64.7758	588
-433.121	64.8859	589
-428.181	64.3351	584
-423.264	63.7843	579
-422.012	63.7843	579
-420.76	63.7843	579
-421.682	64.1148	582
-426.203	64.9961	590
-424.928	64.9961	590
-423.653	64.9961	590
-423.093	65.1063	591
-421.102	64.9961	590
-415.557	64.3351	584
-410.038	63.6741	578
-407.374	63.4538	576
-406.129	63.4538	576
-407.695	63.8945	580
-410.646	64.5554	586
-415.667	65.5469	595
-419.256	66.318	602
-403.375	64.0046	581
-402.119	64.0046	581
-394.653	63.0132	572
-392.041	62.7928	570
-394.237	63.3436	575
-395.728	63.7843	579
-397.883	64.3351	584
-392.545	63.6741	578
-391.296	63.6741	578
-384.648	62.7928	570
-380.725	62.3522	566
-380.843	62.5725	568
-380.951	62.7928	570
-379.719	62.7928	570
-378.487	62.7928	570
-377.917	62.903	571
-376.682	62.903	571
-374.133	62.6827	569
-369.626	62.1319	564
-359.915	60.6997	551
-356.771	60.3693	548
-358.831	60.9201	553
-360.869	61.4709	558
-362.886	62.0217	563
-364.88	62.5725	568
-366.854	63.1233	573
-365.615	63.1233	573
-365.012	63.2335	574
-365.039	63.4538	576
-362.531	63.2335	574
-363.178	63.564	577
-363.813	63.8945	580
-365.059	64.3351	584
-364.42	64.4453	585
-363.155	64.4453	585
-360.653	64.225	583
-356.927	63.7843	579
-355.676	63.7843	579
-351.363	63.2335	574
-348.293	62.903	571
-343.411	62.242	565
-340.373	61.9115	562
-339.158	61.9115	562
-339.747	62.242	565
-340.323	62.5725	568
-341.484	63.0132	572
-343.221	63.564	577
-344.937	64.1148	582
-346.632	64.6656	587
-343.009	64.225	583
-341.749	64.225	583
-336.401	63.4538	576
-329.337	62.3522	566
-325.794	61.9115	562
-324.58	61.9115	562
-323.94	62.0217	563
-324.443	62.3522	566
-324.361	62.5725	568
-323.702	62.6827	569
-322.472	62.6827	569
-317.855	62.0217	563
-315.513	61.8014	561
-315.421	62.0217	563
-314.204	62.0217	563
-311.319	61.6912	560
-309.001	61.4709	558
-306.691	61.2506	556
-301.643	60.4794	549
-299.909	60.3693	548
-298.725	60.3693	548
-298.626	60.5896	550
-298.519	60.8099	552
-296.787	60.6997	551
-295.059	60.5896	550
-293.336	60.4794	549
-291.617	60.3693	548
-288.842	60.0388	545
-291.359	60.8099	552
-289.114	60.5896	550
-289.496	60.9201	553
-293.514	62.0217	563
-290.739	61.6912	560
-287.461	61.2506	556
-282.655	60.4794	549
-278.392	59.8184	543
-276.708	59.7083	542
-277.061	60.0388	545
-278.92	60.6997	551
-279.241	61.0302	554
-279.047	61.2506	556
-277.346	61.1404	555
-273.161	60.4794	549
-269.992	60.0388	545
-268.321	59.9286	544
-268.127	60.1489	546
-269.88	60.8099	552
-269.174	60.9201	553
-264.586	60.1489	546
-256.652	58.6066	532
-255.022	58.4965	531
-253.874	58.4965	531
-253.678	58.7168	533
-252.052	58.6066	532
-253.26	59.1575	537
-254.916	59.8184	543
-254.676	60.0388	545
-251.638	59.5981	541
-250.005	59.4879	540
-249.76	59.7083	542
-248.588	59.7083	542
-246.503	59.4879	540
-245.336	59.4879	540
-245.073	59.7083	542
-244.351	59.8184	543
-243.625	59.9286	544
-240.667	59.4879	540
-238.612	59.2676	538
-234.801	58.6066	532
-230.577	57.8355	525
-227.694	57.3949	521
-227.437	57.6152	523
-228.47	58.166	528
-230.773	59.0473	536
-230.471	59.2676	538
-228.882	59.1575	537
-225.601	58.6066	532
-223.607	58.3863	530
-222.042	58.2762	529
-223.821	59.0473	536
-223.078	59.1575	537
-219.438	58.4965	531
-216.234	57.9457	526
-216.324	58.2762	529
-214.367	58.0558	527
-214.037	58.2762	529
-212.893	58.2762	529
-211.349	58.166	528
-211.402	58.4965	531
-212.63	59.1575	537
-211.863	59.2676	538
-211.484	59.4879	540
-208.369	58.9371	535
-204.888	58.2762	529
-202.204	57.8355	525
-200.686	57.7253	524
-201.458	58.2762	529
-198.8	57.8355	525
-196.159	57.3949	521
-197.653	58.166	528
-199.861	59.1575	537
-198.7	59.1575	537
-194.964	58.3863	530
-192.356	57.9457	526
-189.765	57.505	522
-187.191	57.0644	518
-184.993	56.7339	515
-183.166	56.5135	513
-180.638	56.0729	509
-180.243	56.2932	511
-179.839	56.5135	513
-180.124	56.9542	517
-181.43	57.7253	524
-180.985	57.9457	526
-179.164	57.7253	524
-177.692	57.6152	523
-176.224	57.505	522
-174.424	57.2847	520
-172.967	57.1745	519
-171.845	57.1745	519
-170.065	56.9542	517
-168.948	56.9542	517
-168.155	57.0644	518
-167.357	57.1745	519
-162.392	55.8526	507
-161.296	55.8526	507
-161.464	56.2932	511
-160.359	56.2932	511
-158.943	56.1831	510
-162.173	57.7253	524
-157.967	56.6237	514
-156.246	56.4034	512
-155.745	56.6237	514
-154.634	56.6237	514
-154.12	56.844	516
-152.708	56.7339	515
-150.712	56.4034	512
-149.021	56.1831	510
-147.048	55.8526	507
-146.528	56.0729	509
-145.142	55.9627	508
-144.327	56.0729	509
-143.79	56.2932	511
-141.568	55.8526	507
-140.472	55.8526	507
-138.002	55.3018	502
-136.916	55.3018	502
-135.831	55.3018	502
-136.625	56.0729	509
-135.525	56.0729	509
-133.632	55.7424	506
-133.062	55.9627	508
-132.484	56.1831	510
-132.154	56.5135	513
-131.556	56.7339	515
-130.949	56.9542	517
-129.832	56.9542	517
-127.967	56.6237	514
-126.362	56.4034	512
-125.011	56.2932	511
-124.876	56.7339	515
-124.243	56.9542	517
-119.792	55.4119	503
-118.468	55.3018	502
-118.786	55.9627	508
-117.92	56.0729	509
-116.59	55.9627	508
-115.719	56.0729	509
-115.069	56.2932	511
-113.964	56.2932	511
-112.86	56.2932	511
-111.537	56.1831	510
-110.218	56.0729	509
-109.117	56.0729	509
-108.017	56.0729	509
-106.496	55.8526	507
-104.569	55.4119	503
-103.07	55.1916	501
-99.1372	53.6493	487
-99.6956	54.5306	495
-99.0241	54.7509	497
-99.1322	55.4119	503
-98.8245	55.8526	507
-98.3068	56.1831	510
-96.8232	55.9627	508
-94.9713	55.5221	504
-93.1367	55.0814	500
-91.6876	54.8611	498
-90.0652	54.5306	495
-87.9164	53.8696	489
-87.5699	54.3103	493
-87.3815	54.8611	498
-87.518	55.6322	505
-87.1109	56.0729	509
-85.1657	55.5221	504
-82.5749	54.5306	495
-80.1876	53.6493	487
-78.6473	53.3188	484
-77.1201	52.9883	481
-76.5548	53.3188	484
-75.5085	53.3188	484
-74.4622	53.3188	484
-72.8092	52.8782	480
-71.9211	52.9883	481
-70.8813	52.9883	481
-71.0032	53.8696	489
-70.6613	54.4205	494
-69.8752	54.6408	496
-68.3868	54.3103	493
-67.4576	54.4205	494
-66.2553	54.3103	493
-65.5863	54.6408	496
-64.5141	54.6408	496
-63.4419	54.6408	496
-62.2439	54.5306	495
-61.4211	54.7509	497
-59.861	54.3103	493
-58.3182	53.8696	489
-57.2612	53.8696	489
-56.319	53.9798	490
-55.7109	54.4205	494
-54.643	54.4205	494
-53.792	54.6408	496
-51.9758	53.8696	489
-50.0857	52.9883	481
-48.74	52.6578	478
-48.8045	53.8696	489
-47.7474	53.8696	489
-46.6904	53.8696	489
-45.7266	53.9798	490
-44.8497	54.2001	492
-43.9641	54.4205	494
-42.9831	54.5306	495
-41.8283	54.4205	494
-40.843	54.5306	495
-39.9336	54.7509	497
-38.781	54.6408	496
-37.6328	54.5306	495
-36.415	54.3103	493
-34.9908	53.7595	488
-33.6577	53.3188	484
-32.5441	53.2087	483
-31.3695	52.9883	481
-30.5189	53.3188	484
-29.7771	53.8696	489
-28.8375	54.09	491
-27.7761	54.09	491
-26.7691	54.2001	492
-25.8623	54.5306	495
-24.8423	54.6408	496
-23.7222	54.5306	495
-22.7437	54.7509	497
-21.6257	54.6408	496
-20.6363	54.8611	498
-19.4813	54.6408	496
-18.3719	54.5306	495
-17.1271	53.9798	490
-16.0351	53.8696	489
-15.1005	54.3103	493
-14.1771	54.8611	498
-13.2058	55.3018	502
-12.1207	55.3018	502
-10.9695	54.9713	499
-9.85118	54.7509	497
-8.81213	54.9713	499
-7.70244	54.7509	497
-6.6414	54.8611	498
-5.54252	54.6408	496
-4.45228	54.4205	494
-3.3844	54.4205	494
-2.32589	54.6408	496
-1.26126	54.9713	499
-0.182564	54.9713	499
0.897928	55.0814	500
1.97879	55.0814	500
3.0474	54.8611	498
4.10738	54.6408	496
5.13782	54.2001	492
6.17617	53.9798	490
7.23541	53.9798	490
8.32851	54.2001	492
9.39207	54.2001	492
10.4981	54.4205	494
11.6597	54.8611	498
12.7362	54.8611	498
13.785	54.7509	497
14.7996	54.5306	495
15.9017	54.6408	496
17.0423	54.8611	498
18.1916	55.0814	500
19.1183	54.6408	496
20.1498	54.5306	495
21.1341	54.3103	493
22.2449	54.4205	494
23.124	53.9798	490
24.0352	53.6493	487
25.0364	53.5392	486
26.0334	53.429	485
27.1935	53.6493	487
27.9562	53.0985	482
28.9982	53.0985	482
30.1648	53.3188	484
31.34	53.5392	486
32.6572	53.9798	490
33.854	54.2001	492
35.1305	54.5306	495
36.2006	54.5306	495
36.8941	53.9798	490
37.4886	53.3188	484
38.1368	52.768	479
39.4176	53.0985	482
40.7114	53.429	485
42.1903	53.9798	490
43.6909	54.5306	495
44.8514	54.6408	496
45.831	54.5306	495
46.6168	54.2001	492
47.4865	53.9798	490
48.6449	54.09	491
49.605	53.9798	490
50.7677	54.09	491
51.6179	53.8696	489
52.0287	53.2087	483
53.1827	53.3188	484
54.1169	53.2087	483
55.5036	53.5392	486
55.9724	52.9883	481
56.6566	52.6578	478
57.5692	52.5477	477
58.6004	52.5477	477
59.8815	52.768	479
61.1713	52.9883	481
62.4698	53.2087	483
64.3029	53.8696	489
65.36	53.8696	489
66.2812	53.7595	488
67.1982	53.6493	487
68.2509	53.6493	487
69.7306	53.9798	490
70.212	53.5392	486
70.676	53.0985	482
71.8668	53.2087	483
73.3637	53.5392	486
74.5674	53.6493	487
75.1544	53.3188	484
76.5155	53.5392	486
77.4065	53.429	485
78.7785	53.6493	487
79.6673	53.5392	486
82.2127	54.5306	495
83.9557	54.9713	499
85.3752	55.1916	501
86.1131	54.9713	499
86.6676	54.6408	496
87.0322	54.2001	492
87.3796	53.7595	488
87.8908	53.429	485
88.7559	53.3188	484
90.5443	53.7595	488
92.9132	54.5306	495
94.1731	54.6408	496
95.8214	54.9713	499
96.9001	54.9713	499
97.3897	54.6408	496
97.6679	54.2001	492
98.1294	53.8696	489
98.7808	53.6493	487
100.039	53.7595	488
100.679	53.5392	486
102.148	53.7595	488
102.78	53.5392	486
101.908	52.5477	477
102.723	52.4375	476
104.188	52.6578	478
107.643	53.8696	489
109.145	54.09	491
109.084	53.5392	486
109.228	53.0985	482
109.812	52.8782	480
110.85	52.8782	480
111.888	52.8782	480
114.572	53.6493	487
114.913	53.3188	484
116.917	53.7595	488
119.423	54.4205	494
121.71	54.9713	499
123.035	55.0814	500
123.123	54.6408	496
123.193	54.2001	492
123.499	53.8696	489
122.519	52.9883	481
122.531	52.5477	477
123.044	52.3274	475
124.071	52.3274	475
126.414	52.8782	480
128.78	53.429	485
130.096	53.5392	486
129.797	52.9883	481
130.021	52.6578	478
130.232	52.3274	475
130.982	52.2172	474
131.171	51.8867	471
131.628	51.6664	469
132.925	51.7765	470
134.511	51.9969	472
136.105	52.2172	474
137.998	52.5477	477
139.029	52.5477	477
138.592	51.9969	472
139.021	51.7765	470
139.739	51.6664	469
142.553	52.3274	475
144.185	52.5477	477
147.651	53.429	485
149.926	53.8696	489
149.44	53.3188	484
149.242	52.8782	480
149.34	52.5477	477
149.111	52.107	473
150.133	52.107	473
151.156	52.107	473
153.465	52.5477	477
154.496	52.5477	477
155.527	52.5477	477
156.558	52.5477	477
157.59	52.5477	477
157.956	52.3274	475
157.978	51.9969	472
159.672	52.2172	474
160.697	52.2172	474
161.039	51.9969	472
161.373	51.7765	470
161.698	51.5562	468
164.1	51.9969	472
165.471	52.107	473
167.549	52.4375	476
169.995	52.8782	480
170.676	52.768	479
172.07	52.8782	480
173.107	52.8782	480
174.145	52.8782	480
174.088	52.5477	477
175.119	52.5477	477
175.412	52.3274	475
176.438	52.3274	475
178.212	52.5477	477
180.371	52.8782	480
180.275	52.5477	477
180.546	52.3274	475
180.426	51.9969	472
181.446	51.9969	472
182.08	51.8867	471
182.32	51.6664	469
182.943	51.5562	468
184.741	51.7765	470
187.733	52.3274	475
190.35	52.768	479
196.18	54.09	491
195.634	53.6493	487
194.264	52.9883	481
192.867	52.3274	475
195.527	52.768	479
196.973	52.8782	480
198.423	52.9883	481
199.048	52.8782	480
199.669	52.768	479
199.447	52.4375	476
200.476	52.4375	476
203.199	52.8782	480
205.087	53.0985	482
205.274	52.8782	480
204.592	52.4375	476
197.846	50.4546	458
199.27	50.5648	459
206.806	52.2172	474
207.393	52.107	473
207.093	51.7765	470
208.109	51.7765	470
209.125	51.7765	470
207.459	51.1156	464
207.114	50.7851	461
209.916	51.2257	465
213.643	51.8867	471
216.484	52.3274	475
217.511	52.3274	475
217.618	52.107	473
215.404	51.3359	466
213.625	50.6749	460
214.153	50.5648	459
217.489	51.1156	464
221.788	51.8867	471
222.806	51.8867	471
223.825	51.8867	471
224.365	51.7765	470
223.943	51.4461	467
222.062	50.7851	461
224.026	51.0054	463
227.943	51.6664	469
229.445	51.7765	470
230.952	51.8867	471
231.477	51.7765	470
231.999	51.6664	469
234.006	51.8867	471
235.024	51.8867	471
236.043	51.8867	471
235.551	51.5562	468
235.046	51.2257	465
235.036	51.0054	463
235.017	50.7851	461
234.478	50.4546	458
231.869	49.6835	451
231.295	49.353	448
230.708	49.0225	445
233.753	49.4631	449
237.337	50.0139	454
243.043	51.0054	463
248.788	51.9969	472
249.808	51.9969	472
247.64	51.3359	466
247.046	51.0054	463
248.583	51.1156	464
249.048	51.0054	463
250.589	51.1156	464
248.881	50.5648	459
246.063	49.7936	452
249.772	50.3444	457
253.504	50.8952	462
255.604	51.1156	464
253.842	50.5648	459
255.39	50.6749	460
256.941	50.7851	461
259.616	51.1156	464
262.866	51.5562	468
266.133	51.9969	472
271.682	52.8782	480
272.719	52.8782	480
273.187	52.768	479
274.222	52.768	479
274.683	52.6578	478
276.87	52.8782	480
279.065	53.0985	482
278.945	52.8782	480
279.983	52.8782	480
277.508	52.2172	474
278.532	52.2172	474
281.326	52.5477	477
279.99	52.107	473
281.012	52.107	473
280.842	51.8867	471
283.057	52.107	473
284.68	52.2172	474
285.102	52.107	473
286.124	52.107	473
286.54	51.9969	472
286.951	51.8867	471
287.969	51.8867	471
289.601	51.9969	472
294.316	52.6578	478
295.967	52.768	479
296.382	52.6578	478
297.415	52.6578	478
297.2	52.4375	476
297.602	52.3274	475
-429.231	65.3728	582
-430.179	65.7098	585
-425.982	65.2605	581
-421.071	64.6988	576
-419.826	64.6988	576
-416.4	64.3619	573
-418.784	64.9235	578
-418.98	65.1481	580
-414.125	64.5865	575
-412.882	64.5865	575
-415.218	65.1481	580
-413.251	65.0358	579
-409.153	64.5865	575
-403.653	63.9126	569
-400.302	63.5756	566
-399.078	63.5756	566
-396.449	63.3509	564
-400.135	64.1372	571
-401.695	64.5865	575
-392.095	63.2386	563
-388.795	62.9016	560
-387.584	62.9016	560
-386.374	62.9016	560
-388.602	63.4633	565
-390.123	63.9126	569
-384.792	63.2386	563
-380.85	62.7893	559
-377.604	62.4524	556
-373.694	62.0031	552
-372.501	62.0031	552
-374.671	62.5647	557
-377.49	63.2386	563
-378.946	63.6879	567
-377.055	63.5756	566
-372.511	63.014	561
-369.313	62.677	558
-368.106	62.677	558
-364.27	62.2277	554
-360.451	61.7784	550
-357.302	61.4414	547
-356.12	61.4414	547
-356.235	61.6661	549
-358.929	62.34	555
-359.018	62.5647	557
-358.457	62.677	558
-358.531	62.9016	560
-357.32	62.9016	560
-357.381	63.1263	562
-356.8	63.2386	563
-355.583	63.2386	563
-353.737	63.1263	562
-352.522	63.1263	562
-352.557	63.3509	564
-358.19	64.5865	575
-360.672	65.2605	581
-358.179	65.0358	579
-353.845	64.4742	574
-352.604	64.4742	574
-348.303	63.9126	569
-342.803	63.1263	562
-340.372	62.9016	560
-338.556	62.7893	559
-337.951	62.9016	560
-337.342	63.014	561
-340.923	63.9126	569
-339.693	63.9126	569
-336.678	63.5756	566
-339.011	64.2495	572
-336.593	64.0249	570
-333.007	63.5756	566
-333.542	63.9126	569
-330.56	63.5756	566
-327.591	63.2386	563
-324.635	62.9016	560
-323.424	62.9016	560
-321.063	62.677	558
-319.857	62.677	558
-317.509	62.4524	556
-314.6	62.1154	553
-313.971	62.2277	554
-312.774	62.2277	554
-312.701	62.4524	556
-311.499	62.4524	556
-310.297	62.4524	556
-306.871	62.0031	552
-305.678	62.0031	552
-302.83	61.6661	549
-297.797	60.8798	542
-294.436	60.4305	538
-294.364	60.6552	540
-295.911	61.2168	545
-297.437	61.7784	550
-296.248	61.7784	550
-293.45	61.4414	547
-290.664	61.1045	544
-286.828	60.5428	539
-280.893	59.5319	530
-281.33	59.8689	533
-282.281	60.3182	537
-282.167	60.5428	539
-279.959	60.3182	537
-277.76	60.0935	535
-274.535	59.6442	531
-274.417	59.8689	533
-273.265	59.8689	533
-270.071	59.4196	529
-269.435	59.5319	530
-271.327	60.2059	536
-270.672	60.3182	537
-270.013	60.4305	538
-268.351	60.3182	537
-265.2	59.8689	533
-263.057	59.6442	531
-261.416	59.5319	530
-260.761	59.6442	531
-258.146	59.3073	528
-253.598	58.521	521
-250.048	57.9594	516
-248.451	57.8471	515
-246.377	57.6224	513
-244.79	57.5101	512
-244.159	57.6224	513
-242.576	57.5101	512
-240.998	57.3978	511
-239.424	57.2854	510
-240.19	57.7347	514
-242.8	58.6333	522
-242.135	58.7456	523
-241.004	58.7456	523
-238.956	58.521	521
-234.635	57.7347	514
-241.247	59.6442	531
-239.647	59.5319	530
-238.051	59.4196	529
-233.773	58.6333	522
-229.525	57.8471	515
-224.863	56.9485	507
-223.767	56.9485	507
-222.671	56.9485	507
-223.323	57.3978	511
-224.393	57.9594	516
-226.307	58.7456	523
-227.759	59.4196	529
-227.473	59.6442	531
-225.472	59.4196	529
-222.208	58.858	524
-219.81	58.521	521
-217.844	58.2963	519
-217.558	58.521	521
-216.431	58.521	521
-213.652	58.0717	517
-213.768	58.4087	520
-213.461	58.6333	522
-212.74	58.7456	523
-212.014	58.858	524
-210.881	58.858	524
-209.748	58.858	524
-209.81	59.1949	527
-209.859	59.5319	530
-209.894	59.8689	533
-207.567	59.5319	530
-204.864	59.0826	526
-202.177	58.6333	522
-200.279	58.4087	520
-199.154	58.4087	520
-198.792	58.6333	522
-195.013	57.8471	515
-192.77	57.5101	512
-195.781	58.7456	523
-196.511	59.3073	528
-195	59.1949	527
-191.654	58.521	521
-189.065	58.0717	517
-187.22	57.8471	515
-184.661	57.3978	511
-182.12	56.9485	507
-180.31	56.7238	505
-178.508	56.4992	503
-177.774	56.6115	504
-177.035	56.7238	505
-176.291	56.8361	506
-178.314	57.8471	515
-178.577	58.2963	519
-177.113	58.184	518
-175.314	57.9594	516
-173.523	57.7347	514
-172.076	57.6224	513
-170.301	57.3978	511
-168.865	57.2854	510
-168.092	57.3978	511
-166.987	57.3978	511
-162.961	56.3868	502
-160.586	55.9375	498
-158.869	55.7129	496
-157.796	55.7129	496
-157.988	56.1622	500
-157.849	56.4992	503
-156.45	56.3868	502
-155.365	56.3868	502
-154.587	56.4992	503
-153.194	56.3868	502
-152.109	56.3868	502
-151.325	56.4992	503
-151.133	56.8361	506
-150.04	56.8361	506
-148.063	56.4992	503
-146.975	56.4992	503
-145.018	56.1622	500
-143.361	55.9375	498
-142.57	56.0499	499
-142.342	56.3868	502
-140.976	56.2745	501
-139.614	56.1622	500
-137.424	55.7129	496
-135.802	55.4882	494
-135.553	55.8252	497
-134.478	55.8252	497
-132.867	55.6006	495
-130.732	55.1513	491
-130.727	55.6006	495
-129.657	55.6006	495
-130.405	56.3868	502
-129.835	56.6115	504
-129.512	56.9485	507
-129.429	57.3978	511
-128.074	57.2854	510
-125.975	56.8361	506
-123.647	56.2745	501
-121.341	55.7129	496
-120.027	55.6006	495
-119.918	56.0499	499
-116.219	54.8143	488
-115.4	54.9266	489
-115.045	55.2636	492
-116.53	56.4992	503
-115.213	56.3868	502
-114.355	56.4992	503
-113.718	56.7238	505
-112.18	56.4992	503
-110.651	56.2745	501
-108.475	55.7129	496
-107.619	55.8252	497
-107.402	56.2745	501
-105.046	55.6006	495
-104.186	55.7129	496
-102.49	55.3759	493
-101.836	55.6006	495
-100.155	55.2636	492
-97.0774	54.1403	482
-95.4377	53.8034	479
-94.4022	53.8034	479
-93.7566	54.028	481
-92.9096	54.1403	482
-93.3924	55.0389	490
-93.0869	55.4882	494
-91.6465	55.2636	492
-89.8465	54.8143	488
-88.0638	54.365	484
-86.2983	53.9157	480
-85.4383	54.028	481
-84.574	54.1403	482
-84.9185	55.0389	490
-84.2015	55.2636	492
-82.969	55.1513	491
-81.9076	55.1513	491
-80.5169	54.9266	489
-78.9723	54.5896	486
-77.4407	54.2527	483
-76.2384	54.1403	482
-75.3525	54.2527	483
-74.0007	54.028	481
-72.3542	53.5787	477
-71.1735	53.4664	476
-70.5866	53.8034	479
-70.132	54.2527	483
-69.8031	54.8143	488
-69.3116	55.2636	492
-67.6932	54.8143	488
-65.6824	54.028	481
-64.777	54.1403	482
-63.9995	54.365	484
-63.2134	54.5896	486
-62.5465	54.9266	489
-61.3637	54.8143	488
-60.556	55.0389	490
-59.3753	54.9266	489
-58.3182	54.9266	489
-56.9099	54.5896	486
-55.7443	54.4773	485
-54.4703	54.2527	483
-53.6475	54.4773	485
-52.8159	54.702	487
-51.6569	54.5896	486
-49.9815	53.9157	480
-48.4341	53.3541	475
-46.4092	52.2308	465
-45.404	52.2308	465
-46.1175	54.2527	483
-45.26	54.4773	485
-44.3939	54.702	487
-43.6081	55.0389	490
-42.5489	55.0389	490
-41.4896	55.0389	490
-40.4304	55.0389	490
-39.6122	55.3759	493
-38.6247	55.4882	494
-37.4808	55.3759	493
-36.2673	55.1513	491
-34.8474	54.5896	486
-33.5186	54.1403	482
-32.3419	53.9157	480
-31.3043	53.9157	480
-30.4559	54.2527	483
-29.6553	54.702	487
-28.6026	54.702	487
-27.6064	54.8143	488
-26.7147	55.1513	491
-25.7578	55.3759	493
-24.7421	55.4882	494
-23.6743	55.4882	494
-22.5606	55.3759	493
-21.4513	55.2636	492
-20.1805	54.702	487
-19.0885	54.5896	486
-17.9637	54.365	484
-16.9174	54.365	484
-15.8711	54.365	484
-14.9167	54.702	487
-13.9779	55.1513	491
-12.9428	55.2636	492
-11.8792	55.2636	492
-10.7937	55.1513	491
-9.69261	54.9266	489
-8.60021	54.702	487
-7.56296	54.8143	488
-6.54805	55.1513	491
-5.509	55.3759	493
-4.43426	55.2636	492
-3.37069	55.2636	492
-2.30713	55.2636	492
-1.24357	55.2636	492
-0.180002	55.2636	492
0.87997	55.0389	490
1.95108	55.3759	493
3.00457	55.1513	491
4.05769	55.0389	490
5.0856	54.702	487
6.11315	54.4773	485
7.16158	54.4773	485
8.24387	54.702	487
9.25844	54.4773	485
10.2856	54.365	484
11.3787	54.5896	486
12.4805	54.8143	488
13.4522	54.4773	485
14.5903	54.8143	488
15.7414	55.1513	491
16.9397	55.6006	495
18.0825	55.8252	497
19.0798	55.6006	495
19.987	55.1513	491
20.9198	54.8143	488
21.6595	54.028	481
22.6049	53.8034	479
23.4923	53.4664	476
24.5728	53.5787	477
25.4966	53.3541	475
26.4117	53.1294	473
27.6082	53.4664	476
28.5169	53.2418	474
29.5415	53.2418	474
31.0176	54.028	481
32.3906	54.5896	486
33.51	54.702	487
34.6337	54.8143	488
35.6155	54.702	487
36.2165	54.028	481
36.7915	53.3541	475
37.5795	53.0171	472
38.6816	53.1294	473
40.1238	53.6911	478
41.6737	54.365	484
43.1613	54.9266	489
43.6758	54.2527	483
44.5348	54.028	481
45.5746	54.028	481
46.9051	54.365	484
46.8615	53.1294	473
47.6816	52.9048	471
48.6997	52.9048	471
49.8235	53.0171	472
51.2747	53.4664	476
52.6333	53.8034	479
53.7808	53.9157	480
54.9326	54.028	481
56.2051	54.2527	483
57.1307	54.1403	482
57.5692	53.5787	477
57.8632	52.9048	471
59.0064	53.0171	472
60.6626	53.5787	477
62.0818	53.9157	480
