-63.6642	62.8777	300
-64.0659	63.9256	305
-64.0303	64.5544	308
-63.3645	64.5544	308
-62.6987	64.5544	308
-60.8244	63.2969	302
-59.7731	62.8777	300
-59.1246	62.8777	300
-58.4761	62.8777	300
-57.442	62.4585	298
-55.6543	61.2009	292
-55.023	61.2009	292
-55.1369	62.0393	296
-54.8653	62.4585	298
-54.2211	62.4585	298
-53.5769	62.4585	298
-53.1103	62.6681	299
-52.6394	62.8777	300
-52.1642	63.0873	301
-50.829	62.2489	297
-50.6939	62.8777	300
-50.5458	63.5064	303
-50.2201	63.9256	305
-49.3983	63.716	304
-48.7412	63.716	304
-48.084	63.716	304
-47.5828	63.9256	305
-46.462	63.2969	302
-45.6575	63.0873	301
-44.8573	62.8777	300
-43.914	62.4585	298
-43.8506	63.2969	302
-42.9117	62.8777	300
-42.6858	63.5064	303
-41.7534	63.0873	301
-41.2393	63.2969	302
-40.5864	63.2969	302
-39.8014	63.0873	301
-38.7605	62.4585	298
-37.9884	62.2489	297
-37.4721	62.4585	298
-36.3336	61.6201	294
-35.9409	62.0393	296
-35.301	62.0393	296
-35.0124	62.6681	299
-34.7109	63.2969	302
-33.9453	63.0873	301
-33.6264	63.716	304
-32.9693	63.716	304
-32.2058	63.5064	303
-31.3426	63.0873	301
-30.488	62.6681	299
-29.642	62.2489	297
-29.3906	63.0873	301
-29.1218	63.9256	305
-28.0892	63.0873	301
-27.712	63.716	304
-27.0548	63.716	304
-26.3977	63.716	304
-25.5712	63.2969	302
-25.0008	63.5064	303
-24.2655	63.2969	302
-23.4563	62.8777	300
-22.7317	62.6681	299
-21.9377	62.2489	297
-21.2956	62.2489	297
-20.8622	62.8777	300
-20.2137	62.8777	300
-19.5	62.6681	299
-18.8536	62.6681	299
-18.3899	63.2969	302
-17.7371	63.2969	302
-17.0843	63.2969	302
-16.105	62.0393	296
-15.4129	61.8297	295
-14.8252	62.0393	296
-14.5208	63.5064	303
-14.0489	64.3448	307
-13.4288	64.5544	308
-12.6387	63.9256	305
-11.9401	63.716	304
-11.3201	63.9256	305
-10.5209	63.0873	301
-9.64073	61.6201	294
-9.15833	62.6681	299
-8.36964	61.6201	294
-7.70779	61.4105	293
-7.21927	62.6681	299
-6.55094	62.4585	298
-5.82746	61.6201	294
-5.17426	61.4105	293
-4.52538	61.2009	292
-3.93416	61.8297	295
-3.31881	62.2489	297
-2.6948	62.6681	299
-2.04845	62.6681	299
-1.4021	62.6681	299
-0.753217	62.4585	298
-0.109026	62.4585	298
0.533369	62.2489	297
1.17936	62.4585	298
1.81131	62.0393	296
2.4429	61.8297	295
3.04927	61.2009	292
3.66789	60.9913	291
4.32648	61.4105	293
4.99372	61.8297	295
5.63142	61.8297	295
6.22663	61.4105	293
6.88342	61.6201	294
7.57012	62.0393	296
8.0713	60.9913	291
8.81995	61.8297	295
9.55384	62.4585	298
10.198	62.4585	298
10.8786	62.6681	299
11.5635	62.8777	300
12.212	62.8777	300
12.9034	63.0873	301
13.509	62.8777	300
13.9688	62.0393	296
14.51	61.6201	294
15.1455	61.6201	294
15.781	61.6201	294
16.4166	61.6201	294
17.0521	61.6201	294
18.1088	63.0873	301
18.8841	63.5064	303
19.4746	63.2969	302
19.9942	62.8777	300
20.5051	62.4585	298
21.2202	62.6681	299
21.8666	62.6681	299
22.513	62.6681	299
23.2368	62.8777	300
23.8853	62.8777	300
24.6974	63.2969	302
24.5108	61.2009	292
25.2281	61.4105	293
26.2145	62.2489	297
27.1278	62.8777	300
27.869	63.0873	301
27.9511	61.8297	295
28.2981	61.2009	292
29.4247	62.2489	297
29.5605	61.2009	292
29.985	60.7817	290
30.7174	60.9913	291
31.8851	62.0393	296
32.1953	61.4105	293
32.7166	61.2009	292
33.8047	62.0393	296
34.4446	62.0393	296
35.203	62.2489	297
35.9657	62.4585	298
36.9784	63.0873	301
37.7541	63.2969	302
37.5167	61.8297	295
38.1544	61.8297	295
38.7921	61.8297	295
39.4298	61.8297	295
40.0675	61.8297	295
41.2572	62.6681	299
42.324	63.2969	302
43.2614	63.716	304
43.6297	63.2969	302
44.2825	63.2969	302
44.4889	62.6681	299
44.9843	62.4585	298
45.4754	62.2489	297
46.7386	63.0873	301
47.3892	63.0873	301
47.8803	62.8777	300
48.0435	62.2489	297
49.0134	62.6681	299
49.3276	62.2489	297
49.6331	61.8297	295
50.1004	61.6201	294
50.736	61.6201	294
51.721	62.0393	296
52.3609	62.0393	296
53.5379	62.6681	299
54.003	62.4585	298
54.4638	62.2489	297
53.9926	60.9913	291
54.0586	60.3626	288
55.4406	61.2009	292
56.8399	62.0393	296
58.4507	63.0873	301
58.5124	62.4585	298
58.958	62.2489	297
59.6001	62.2489	297
60.2421	62.2489	297
60.4741	61.8297	295
61.1118	61.8297	295
61.5402	61.6201	294
62.1758	61.6201	294
63.025	61.8297	295
63.6627	61.8297	295
64.0824	61.6201	294
65.1582	62.0393	296
66.6872	62.8777	300
67.1113	62.6681	299
67.3044	62.2489	297
68.8615	63.0873	301
68.5885	62.2489	297
68.7643	61.8297	295
69.1668	61.6201	294
71.2268	62.8777	300
70.917	62.0393	296
71.5569	62.0393	296
72.1967	62.0393	296
72.5905	61.8297	295
74.4694	62.8777	300
75.6187	63.2969	302
76.2715	63.2969	302
75.6508	62.2489	297
76.0359	62.0393	296
76.4168	61.8297	295
77.8381	62.4585	298
78.4823	62.4585	298
78.8609	62.2489	297
79.7707	62.4585	298
79.6053	61.8297	295
79.427	61.2009	292
80.6066	61.6201	294
80.9658	61.4105	293
82.1561	61.8297	295
82.5132	61.6201	294
82.3003	60.9913	291
81.7894	60.153	287
83.2712	60.7817	290
84.7661	61.4105	293
85.6909	61.6201	294
86.0328	61.4105	293
86.3704	61.2009	292
86.4057	60.7817	290
86.7325	60.5722	289
87.6595	60.7817	290
87.982	60.5722	289
88.9133	60.7817	290
89.5402	60.7817	290
90.478	60.9913	291
90.794	60.7817	290
91.7362	60.9913	291
92.6826	61.2009	292
93.6334	61.4105	293
94.2668	61.4105	293
94.9002	61.4105	293
95.5336	61.4105	293
96.8234	61.8297	295
98.1218	62.2489	297
97.7662	61.6201	294
97.7324	61.2009	292
98.0267	60.9913	291
98.6558	60.9913	291
99.9672	61.4105	293
101.631	62.0393	296
103.653	62.8777	300
103.606	62.4585	298
103.9	62.2489	297
104.542	62.2489	297
106.247	62.8777	300
107.251	63.0873	301
108.619	63.5064	303
108.913	63.2969	302
108.478	62.6681	299
108.029	62.0393	296
107.935	61.6201	294
109.309	62.0393	296
110.32	62.2489	297
109.842	61.6201	294
110.101	61.4105	293
111.113	61.6201	294
110.988	61.2009	292
111.237	60.9913	291
111.866	60.9913	291
112.882	61.2009	292
113.124	60.9913	291
113.753	60.9913	291
113.989	60.7817	290
114.221	60.5722	289
114.448	60.3626	288
114.671	60.153	287
115.292	60.153	287
116.316	60.3626	288
117.345	60.5722	289
119.194	61.2009	292
120.646	61.6201	294
120.044	60.9913	291
120.258	60.7817	290
120.885	60.7817	290
121.512	60.7817	290
121.297	60.3626	288
121.072	59.9434	286
121.265	59.7338	285
122.737	60.153	287
120.778	58.8954	281
121.818	59.105	282
123.295	59.5242	284
124.782	59.9434	286
127.154	60.7817	290
127.781	60.7817	290
127.965	60.5722	289
128.59	60.5722	289
129.662	60.7817	290
128.491	59.9434	286
130.464	60.5722	289
131.542	60.7817	290
131.713	60.5722	289
130.964	59.9434	286
131.123	59.7338	285
130.352	59.105	282
130.962	59.105	282
132.504	59.5242	284
134.993	60.3626	288
135.616	60.3626	288
135.765	60.153	287
135.91	59.9434	286
137.006	60.153	287
138.106	60.3626	288
140.174	60.9913	291
141.287	61.2009	292
140.946	60.7817	290
140.108	60.153	287
140.729	60.153	287
141.349	60.153	287
141.969	60.153	287
145.074	61.2009	292
146.703	61.6201	294
146.336	61.2009	292
147.974	61.6201	294
149.621	62.0393	296
152.291	62.8777	300
152.94	62.8777	300
151.028	61.8297	295
150.638	61.4105	293
150.239	60.9913	291
149.831	60.5722	289
149.414	60.153	287
152.126	60.9913	291
152.23	60.7817	290
151.276	60.153	287
151.896	60.153	287
153.579	60.5722	289
153.137	60.153	287
156.972	61.4105	293
158.143	61.6201	294
158.238	61.4105	293
157.245	60.7817	290
156.783	60.3626	288
157.406	60.3626	288
157.48	60.153	287
158.651	60.3626	288
160.933	60.9913	291
161.562	60.9913	291
162.191	60.9913	291
163.379	61.2009	292
165.696	61.8297	295
166.333	61.8297	295
165.273	61.2009	292
161.359	59.5242	284
161.973	59.5242	284
163.159	59.7338	285
163.775	59.7338	285
166.699	60.5722	289
166.165	60.153	287
166.786	60.153	287
169.156	60.7817	290
170.369	60.9913	291
171.585	61.2009	292
170.447	60.5722	289
171.072	60.5722	289
170.508	60.153	287
170.532	59.9434	286
172.348	60.3626	288
174.171	60.7817	290
173.593	60.3626	288
174.215	60.3626	288
176.052	60.7817	290
178.507	61.4105	293
179.751	61.6201	294
177.933	60.7817	290
177.944	60.5722	289
177.951	60.3626	288
178.573	60.3626	288
179.196	60.3626	288
177.945	59.7338	285
178.561	59.7338	285
179.178	59.7338	285
-230.841	66.2789	313
-230.9	66.4907	314
-230.221	66.4907	314
-231.004	66.9142	316
-234.694	68.1847	322
-237.632	69.2435	327
-236.2	69.0317	326
-235.495	69.0317	326
-234.07	68.82	325
-231.932	68.3965	323
-229.802	67.9729	321
-226.253	67.1259	317
-224.145	66.7024	315
-223.464	66.7024	315
-224.904	67.3377	318
-224.922	67.5494	319
-228.45	68.82	325
-225.645	68.1847	322
-226.346	68.6082	324
-225.646	68.6082	324
-222.863	67.9729	321
-222.861	68.1847	322
-222.165	68.1847	322
-222.157	68.3965	323
-222.83	68.82	325
-222.127	68.82	325
-220.743	68.6082	324
-220.043	68.6082	324
-218.665	68.3965	323
-217.967	68.3965	323
-218.614	68.82	325
-217.912	68.82	325
-217.209	68.82	325
-216.507	68.82	325
-215.14	68.6082	324
-213.778	68.3965	323
-213.739	68.6082	324
-213.039	68.6082	324
-216.271	69.8787	330
-215.557	69.8787	330
-213.542	69.4552	328
-204.397	66.7024	315
-204.363	66.9142	316
-203.035	66.7024	315
-202.354	66.7024	315
-202.314	66.9142	316
-201.631	66.9142	316
-200.948	66.9142	316
-200.264	66.9142	316
-201.476	67.5494	319
-200.157	67.3377	318
-199.47	67.3377	318
-196.282	66.4907	314
-192.488	65.4319	309
-189.958	64.7966	306
-190.534	65.2202	308
-191.717	65.8554	311
-194.117	66.9142	316
-193.433	66.9142	316
-193.36	67.1259	317
-193.283	67.3377	318
-192.595	67.3377	318
-191.908	67.3377	318
-191.221	67.3377	318
-188.137	66.4907	314
-188.055	66.7024	315
-187.374	66.7024	315
-186.1	66.4907	314
-186.012	66.7024	315
-185.919	66.9142	316
-183.478	66.2789	313
-182.801	66.2789	313
-181.543	66.0672	312
-180.288	65.8554	311
-180.771	66.2789	313
-180.095	66.2789	313
-178.272	65.8554	311
-177.599	65.8554	311
-176.358	65.6437	310
-175.121	65.4319	309
-173.889	65.2202	308
-173.785	65.4319	309
-174.238	65.8554	311
-174.124	66.0672	312
-175.117	66.7024	315
-175.543	67.1259	317
-172.1	66.0672	312
-170.327	65.6437	310
-168.015	65.0084	307
-165.716	64.3731	304
-166.145	64.7966	306
-167.646	65.6437	310
-167.515	65.8554	311
-166.843	65.8554	311
-165.636	65.6437	310
-164.966	65.6437	310
-164.826	65.8554	311
-163.626	65.6437	310
-161.378	65.0084	307
-159.144	64.3731	304
-159.008	64.5849	305
-157.83	64.3731	304
-159.758	65.4319	309
-160.12	65.8554	311
-158.422	65.4319	309
-157.754	65.4319	309
-158.103	65.8554	311
-156.418	65.4319	309
-155.75	65.4319	309
-154.58	65.2202	308
-152.415	64.5849	305
-153.249	65.2202	308
-154.069	65.8554	311
-153.89	66.0672	312
-152.724	65.8554	311
-150.585	65.2202	308
-149.92	65.2202	308
-149.254	65.2202	308
-148.588	65.2202	308
-147.442	65.0084	307
-145.822	64.5849	305
-147.066	65.4319	309
-146.398	65.4319	309
-146.202	65.6437	310
-142.715	64.3731	304
-142.993	64.7966	306
-141.866	64.5849	305
-140.744	64.3731	304
-140.547	64.5849	305
-139.888	64.5849	305
-138.316	64.1614	303
-137.206	63.9496	302
-137.006	64.1614	303
-137.251	64.5849	305
-137.039	64.7966	306
-135.041	64.1614	303
-133.942	63.9496	302
-132.848	63.7379	301
-133.515	64.3731	304
-132.858	64.3731	304
-132.201	64.3731	304
-131.976	64.5849	305
-132.178	65.0084	307
-131.943	65.2202	308
-131.277	65.2202	308
-131.459	65.6437	310
-130.789	65.6437	310
-129.279	65.2202	308
-129.031	65.4319	309
-126.286	64.3731	304
-125.216	64.1614	303
-124.15	63.9496	302
-124.724	64.5849	305
-125.691	65.4319	309
-125.428	65.6437	310
-124.355	65.4319	309
-124.088	65.6437	310
-123.418	65.6437	310
-121.56	65.0084	307
-120.108	64.5849	305
-119.841	64.7966	306
-117.621	63.9496	302
-117.743	64.3731	304
-117.086	64.3731	304
-116.812	64.5849	305
-114.629	63.7379	301
-116.25	65.0084	307
-114.834	64.5849	305
-112.303	63.5261	300
-111.282	63.3144	299
-111.376	63.7379	301
-111.093	63.9496	302
-111.171	64.3731	304
-110.514	64.3731	304
-112.748	66.0672	312
-110.996	65.4319	309
-109.257	64.7966	306
-109.305	65.2202	308
-107.934	64.7966	306
-109.376	66.0672	312
-108.005	65.6437	310
-104.565	63.9496	302
-106.32	65.4319	309
-104.285	64.5849	305
-103.625	64.5849	305
-103.304	64.7966	306
-102.978	65.0084	307
-102.314	65.0084	307
-101.65	65.0084	307
-100.987	65.0084	307
-99.0158	64.1614	303
-98.6854	64.3731	304
-98.9956	65.0084	307
-98.332	65.0084	307
-96.3958	64.1614	303
-95.7408	64.1614	303
-95.0858	64.1614	303
-94.7425	64.3731	304
-95.0138	65.0084	307
-94.9648	65.4319	309
-93.3813	64.7966	306
-92.1138	64.3731	304
-91.4566	64.3731	304
-91.3969	64.7966	306
-90.1423	64.3731	304
-88.3077	63.5261	300
-87.0748	63.1026	298
-86.4306	63.1026	298
-85.7864	63.1026	298
-85.1422	63.1026	298
-84.2145	62.8909	297
-83.5725	62.8909	297
-82.9304	62.8909	297
-81.4572	62.2556	294
-81.0966	62.4674	295
-79.6406	61.8321	292
-78.7388	61.6203	291
-79.7203	62.8909	297
-77.4807	61.6203	291
-80.549	64.5849	305
-78.0561	63.1026	298
-79.4901	64.7966	306
-78.571	64.5849	305
-78.6781	65.2202	308
-77.5057	64.7966	306
-76.8442	64.7966	306
-75.6848	64.3731	304
-74.534	63.9496	302
-73.1473	63.3144	299
-72.7434	63.5261	300
-71.6142	63.1026	298
-70.7319	62.8909	297
-71.0338	63.7379	301
-70.8508	64.1614	303
-71.1225	65.0084	307
-68.8523	63.5261	300
-67.7491	63.1026	298
-67.3301	63.3144	299
-66.6837	63.3144	299
-66.2582	63.5261	300
-65.391	63.3144	299
-64.5281	63.1026	298
-63.6696	62.8909	297
-63.0275	62.8909	297
-62.5956	63.1026	298
-62.3671	63.5261	300
-61.9244	63.7379	301
-61.2737	63.7379	301
-60.4216	63.5261	300
-59.5738	63.3144	299
-58.9275	63.3144	299
-57.3065	62.2556	294
-56.4782	62.0438	293
-56.226	62.4674	295
-55.2115	62.0438	293
-54.7644	62.2556	294
-54.497	62.6791	296
-54.0391	62.8909	297
-53.5769	63.1026	298
-52.9327	63.1026	298
-52.464	63.3144	299
-51.6443	63.1026	298
-50.829	62.8909	297
-50.5249	63.3144	299
-49.7117	63.1026	298
-49.3969	63.5261	300
-48.9108	63.7379	301
-48.2602	63.7379	301
-47.2931	63.3144	299
-46.0228	62.4674	295
-46.1543	63.5261	300
-45.5058	63.5261	300
-44.4087	62.8909	297
-43.6193	62.6791	296
-43.2698	63.1026	298
-43.3408	64.1614	303
-42.8267	64.3731	304
-41.7534	63.7379	301
-40.9662	63.5261	300
-40.3177	63.5261	300
-39.4047	63.1026	298
-38.6304	62.8909	297
-37.7326	62.4674	295
-36.7176	61.8321	292
-36.0864	61.8321	292
-35.5766	62.0438	293
-34.824	61.8321	292
-33.8415	61.1968	289
-33.7914	62.2556	294
-33.8325	63.5261	300
-33.0734	63.3144	299
-32.3186	63.1026	298
-31.6744	63.1026	298
-30.9261	62.8909	297
-30.284	62.8909	297
-29.4424	62.4674	295
-29	62.8909	297
-28.4534	63.1026	298
-27.9959	63.5261	300
-27.3474	63.5261	300
-26.6989	63.5261	300
-25.8767	63.1026	298
-25.3172	63.3144	299
-24.3408	62.4674	295
-23.703	62.4674	295
-23.2217	62.8909	297
-22.5037	62.6791	296
-21.9377	62.8909	297
-21.2956	62.8909	297
-20.7231	63.1026	298
-20.1463	63.3144	299
-19.3043	62.6791	296
-18.7275	62.8909	297
-18.2073	63.3144	299
-17.6196	63.5261	300
-16.6883	62.4674	295
-16.1594	62.8909	297
-15.3606	62.2556	294
-14.7752	62.4674	295
-14.1854	62.6791	296
-13.7286	63.5261	300
-13.2544	64.3731	304
-12.4315	63.5261	300
-11.7045	63.1026	298
-11.0603	63.1026	298
-10.3811	62.8909	297
-9.7391	62.8909	297
-8.94392	61.8321	292
-8.36964	62.2556	294
-7.7604	62.4674	295
-7.12269	62.4674	295
-6.463	62.2556	294
-5.80764	62.0438	293
-5.19192	62.2556	294
-4.57187	62.4674	295
-3.92083	62.2556	294
-3.26293	61.8321	292
-2.60468	61.1968	289
-1.98679	61.4086	290
-1.4021	63.3144	299
-0.748162	62.6791	296
-0.107928	62.4674	295
0.527982	62.2556	294
1.16353	62.2556	294
1.79907	62.2556	294
2.42633	62.0438	293
3.04927	61.8321	292
3.65528	61.4086	290
4.28218	61.4086	290
4.90908	61.4086	290
5.51689	61.1968	289
6.16287	61.4086	290
6.81318	61.6203	291
7.49339	62.0438	293
8.20998	62.6791	296
8.87975	62.8909	297
9.48972	62.6791	296
10.1296	62.6791	296
10.8058	62.8909	297
11.525	63.3144	299
12.1713	63.3144	299
12.7319	62.8909	297
13.2839	62.4674	295
13.8272	62.0438	293
14.4606	62.0438	293
14.991	61.6203	291
15.5127	61.1968	289
16.2491	61.6203	291
16.9361	61.8321	292
17.5072	61.6203	291
18.5102	62.8909	297
19.4102	63.7379	301
19.9942	63.5261	300
20.5051	63.1026	298
21.0783	62.8909	297
21.7203	62.8909	297
22.2871	62.6791	296
23.0819	63.1026	298
23.8057	63.3144	299
24.2067	62.6791	296
24.5108	61.8321	292
24.9698	61.4086	290
25.5084	61.1968	289
26.314	61.6203	291
26.7579	61.1968	289
27.2879	60.9851	288
27.7166	60.5616	286
28.6321	61.1968	289
28.6494	59.9263	283
29.6748	60.7733	287
30.5063	61.1968	289
31.3465	61.6203	291
31.7558	61.1968	289
32.3805	61.1968	289
33.4621	62.0438	293
34.2118	62.2556	294
34.4918	61.6203	291
35.2415	61.8321	292
36.7327	63.3144	299
37.129	62.8909	297
37.6439	62.6791	296
38.1544	62.4674	295
38.6606	62.2556	294
39.0289	61.8321	292
39.6601	61.8321	292
40.7052	62.4674	295
41.6232	62.8909	297
42.4076	63.1026	298
43.1962	63.3144	299
43.696	63.1026	298
44.1914	62.8909	297
44.6824	62.6791	296
45.7817	63.3144	299
46.2727	63.1026	298
47.0744	63.3144	299
47.4015	62.8909	297
47.5583	62.2556	294
48.5216	62.6791	296
48.9954	62.4674	295
49.9696	62.8909	297
50.1004	62.2556	294
50.5634	62.0438	293
51.1968	62.0438	293
52.5377	62.8909	297
52.8217	62.4674	295
53.2781	62.2556	294
53.9137	62.2556	294
53.6215	61.1968	289
53.8709	60.7733	287
54.871	61.1968	289
56.0718	61.8321	292
57.4798	62.6791	296
58.316	62.8909	297
58.958	62.8909	297
58.396	61.6203	291
59.8364	62.4674	295
60.0641	62.0438	293
60.4904	61.8321	292
60.7029	61.4086	290
61.5413	61.6203	291
62.1704	61.6203	291
62.5836	61.4086	290
62.5566	60.7733	287
62.7368	60.3498	285
63.7975	60.7733	287
64.1934	60.5616	286
64.8117	60.5616	286
67.0313	62.0438	293
67.2029	61.6203	291
67.1326	60.9851	288
67.7552	60.9851	288
70.0397	62.4674	295
70.6774	62.4674	295
71.3151	62.4674	295
71.7089	62.2556	294
71.8523	61.8321	292
72.4836	61.8321	292
73.3652	62.0438	293
74.2511	62.2556	294
74.6319	62.0438	293
75.5222	62.2556	294
76.4168	62.4674	295
77.0545	62.4674	295
78.2189	62.8909	297
78.8609	62.8909	297
79.2353	62.6791	296
79.6053	62.4674	295
79.427	61.8321	292
78.9615	60.9851	288
81.5184	62.4674	295
82.1561	62.4674	295
82.5132	62.2556	294
81.169	60.7733	287
82.0744	60.9851	288
84.1327	62.0438	293
85.0554	62.2556	294
86.2738	62.6791	296
86.0328	62.0438	293
86.0746	61.6203	291
86.1078	61.1968	289
86.7325	61.1968	289
87.055	60.9851	288
87.982	61.1968	289
88.6067	61.1968	289
89.5402	61.4086	290
90.1671	61.4086	290
90.794	61.4086	290
90.7904	60.9851	288
91.0956	60.7733	287
92.3551	61.1968	289
92.6581	60.9851	288
93.2807	60.9851	288
93.5772	60.7733	287
93.5412	60.3498	285
93.8269	60.1381	284
94.4409	60.1381	284
95.7242	60.5616	286
97.0162	60.9851	288
97.9778	61.1968	289
98.6025	61.1968	289
98.8839	60.9851	288
101.234	62.0438	293
102.563	62.4674	295
104.25	63.1026	298
103.838	62.4674	295
105.538	63.1026	298
106.539	63.3144	299
107.544	63.5261	300
108.192	63.5261	300
108.115	63.1026	298
108.394	62.8909	297
108.302	62.4674	295
108.94	62.4674	295
109.949	62.6791	296
109.094	61.8321	292
109.35	61.6203	291
109.979	61.6203	291
109.468	60.9851	288
110.472	61.1968	289
109.56	60.3498	285
109.016	59.7146	282
110.014	59.9263	283
111.017	60.1381	284
111.631	60.1381	284
111.454	59.7146	282
112.461	59.9263	283
114.272	60.5616	286
115.693	60.9851	288
116.72	61.1968	289
116.939	60.9851	288
117.969	61.1968	289
118.184	60.9851	288
118.806	60.9851	288
118.599	60.5616	286
117.967	59.9263	283
118.579	59.9263	283
119.191	59.9263	283
119.802	59.9263	283
120.84	60.1381	284
121.026	59.9263	283
120.778	59.5028	281
120.954	59.291	280
121.559	59.291	280
122.6	59.5028	281
124.962	60.3498	285
126.9	60.9851	288
127.079	60.7733	287
128.145	60.9851	288
126.085	59.7146	282
127.144	59.9263	283
129.561	60.7733	287
131.542	61.4086	290
131.713	61.1968	289
132.796	61.4086	290
133.883	61.6203	291
134.05	61.4086	290
134.212	61.1968	289
133.904	60.7733	287
134.524	60.7733	287
134.674	60.5616	286
135.765	60.7733	287
135.91	60.5616	286
137.006	60.7733	287
138.586	61.1968	289
140.174	61.6203	291
140.803	61.6203	291
138.516	60.3498	285
137.667	59.7146	282
138.767	59.9263	283
140.856	60.5616	286
141.969	60.7733	287
142.59	60.7733	287
144.208	61.1968	289
145.334	61.4086	290
143.948	60.5616	286
148.104	62.0438	293
149.245	62.2556	294
149.881	62.2556	294
150.516	62.2556	294
149.61	61.6203	291
147.141	60.3498	285
147.239	60.1381	284
148.373	60.3498	285
147.944	59.9263	283
148.555	59.9263	283
150.748	60.5616	286
149.779	59.9263	283
151.454	60.3498	285
151.536	60.1381	284
153.221	60.5616	286
154.916	60.9851	288
157.158	61.6203	291
158.33	61.8321	292
155.694	60.5616	286
156.313	60.5616	286
156.931	60.5616	286
158.1	60.7733	287
160.38	61.4086	290
161.007	61.4086	290
160.519	60.9851	288
160.582	60.7733	287
161.764	60.9851	288
163.514	61.4086	290
160.745	60.1381	284
161.359	60.1381	284
161.973	60.1381	284
162.587	60.1381	284
163.201	60.1381	284
163.815	60.1381	284
163.85	59.9263	283
165.624	60.3498	285
166.823	60.5616	286
168.612	60.9851	288
170.41	61.4086	290
170.447	61.1968	289
171.072	61.1968	289
170.508	60.7733	287
169.936	60.3498	285
170.552	60.3498	285
171.769	60.5616	286
172.387	60.5616	286
172.401	60.3498	285
174.231	60.7733	287
173.633	60.3498	285
173.637	60.1381	284
173.638	59.9263	283
176.712	60.7733	287
177.333	60.7733	287
177.953	60.7733	287
177.951	60.5616	286
177.945	60.3498	285
179.188	60.5616	286
180.435	60.7733	287
-229.366	66.5276	311
-229.429	66.7416	312
-228.754	66.7416	312
-228.08	66.7416	312
-229.592	67.3833	315
-233.271	68.6668	321
-233.302	68.8807	322
-231.884	68.6668	321
-231.19	68.6668	321
-229.06	68.239	319
-227.654	68.025	318
-222.684	66.7416	312
-219.164	65.8859	308
-218.498	65.8859	308
-218.539	66.0998	309
-222.102	67.3833	315
-224.232	68.239	319
-226.346	69.0946	323
-223.552	68.4529	320
-222.86	68.4529	320
-220.78	68.025	318
-218.708	67.5972	316
-219.405	68.025	318
-220.093	68.4529	320
-220.773	68.8807	322
-220.077	68.8807	322
-218.018	68.4529	320
-217.326	68.4529	320
-216.634	68.4529	320
-217.292	68.8807	322
-215.924	68.6668	321
-212.548	67.8111	317
-211.862	67.8111	317
-210.511	67.5972	316
-209.828	67.5972	316
-209.145	67.5972	316
-207.142	67.1694	314
-207.121	67.3833	315
-207.751	67.8111	317
-207.066	67.8111	317
-205.078	67.3833	315
-204.397	67.3833	315
-203.07	67.1694	314
-201.746	66.9555	313
-201.712	67.1694	314
-201.033	67.1694	314
-199.078	66.7416	312
-197.768	66.5276	311
-197.096	66.5276	311
-196.423	66.5276	311
-195.122	66.3137	310
-193.824	66.0998	309
-190.656	65.2441	305
-189.374	65.0302	304
-189.337	65.2441	305
-187.441	64.8163	303
-188.635	65.4581	306
-192.888	67.1694	314
-192.209	67.1694	314
-190.92	66.9555	313
-191.459	67.3833	315
-191.384	67.5972	316
-188.891	66.9555	313
-185.809	66.0998	309
-184.542	65.8859	308
-185.667	66.5276	311
-185.589	66.7416	312
-185.508	66.9555	313
-184.24	66.7416	312
-182.389	66.3137	310
-179.961	65.672	307
-179.881	65.8859	308
-179.215	65.8859	308
-179.709	66.3137	310
-179.616	66.5276	311
-177.793	66.0998	309
-176.552	65.8859	308
-175.886	65.8859	308
-174.651	65.672	307
-173.988	65.672	307
-173.324	65.672	307
-173.785	66.0998	309
-173.678	66.3137	310
-171.891	65.8859	308
-170.114	65.4581	306
-170.56	65.8859	308
-170.445	66.0998	309
-169.228	65.8859	308
-167.468	65.4581	306
-165.716	65.0302	304
-164.516	64.8163	303
-163.32	64.6024	302
-163.744	65.0302	304
-163.087	65.0302	304
-161.361	64.6024	302
-161.241	64.8163	303
-160.586	64.8163	303
-160.459	65.0302	304
-159.801	65.0302	304
-159.144	65.0302	304
-157.966	64.8163	303
-156.792	64.6024	302
-156.139	64.6024	302
-156.001	64.8163	303
-156.371	65.2441	305
-156.222	65.4581	306
-156.578	65.8859	308
-155.406	65.672	307
-154.238	65.4581	306
-152.573	65.0302	304
-151.915	65.0302	304
-152.751	65.672	307
-153.078	66.0998	309
-152.903	66.3137	310
-150.76	65.672	307
-149.608	65.4581	306
-148.946	65.4581	306
-148.769	65.672	307
-147.623	65.4581	306
-146.481	65.2441	305
-145.344	65.0302	304
-143.735	64.6024	302
-142.608	64.3885	301
-141.958	64.3885	301
-141.776	64.6024	302
-138.787	63.5328	297
-140.006	64.3885	301
-139.818	64.6024	302
-139.626	64.8163	303
-139.429	65.0302	304
-137.859	64.6024	302
-136.298	64.1746	300
-135.649	64.1746	300
-136.351	64.8163	303
-136.591	65.2441	305
-134.595	64.6024	302
-133.942	64.6024	302
-134.172	65.0302	304
-132.637	64.6024	302
-132.858	65.0302	304
-132.201	65.0302	304
-131.543	65.0302	304
-130.456	64.8163	303
-130.229	65.0302	304
-129.572	65.0302	304
-127.643	64.3885	301
-126.148	63.9607	299
-127.181	64.8163	303
-126.943	65.0302	304
-126.286	65.0302	304
-123.976	64.1746	300
-123.328	64.1746	300
-122.679	64.1746	300
-123.658	65.0302	304
-123.405	65.2441	305
-123.953	65.8859	308
-123.287	65.8859	308
-121.825	65.4581	306
-120.372	65.0302	304
-120.108	65.2441	305
-119.449	65.2441	305
-118.4	65.0302	304
-117.356	64.8163	303
-115.93	64.3885	301
-112.216	62.6772	293
-113.867	63.9607	299
-115.493	65.2441	305
-114.457	65.0302	304
-113.051	64.6024	302
-111.282	63.9607	299
-111.376	64.3885	301
-110.725	64.3885	301
-110.44	64.6024	302
-109.787	64.6024	302
-109.134	64.6024	302
-109.2	65.0302	304
-108.9	65.2441	305
-108.241	65.2441	305
-107.229	65.0302	304
-106.221	64.8163	303
-104.521	64.1746	300
-103.872	64.1746	300
-102.879	63.9607	299
-102.575	64.1746	300
-102.606	64.6024	302
-102.291	64.8163	303
-102.307	65.2441	305
-100.981	64.8163	303
-99.6636	64.3885	301
-99.6708	64.8163	303
-98.689	64.6024	302
-98.3608	64.8163	303
-98.6732	65.4581	306
-97.0508	64.8163	303
-95.7595	64.3885	301
-95.1088	64.3885	301
-93.8305	63.9607	299
-93.4958	64.1746	300
-93.7758	64.8163	303
-93.4281	65.0302	304
-92.771	65.0302	304
-91.2048	64.3885	301
-89.3507	63.5328	297
-88.41	63.3189	296
-88.6597	63.9607	299
-88.0134	63.9607	299
-87.0748	63.7467	298
-85.8506	63.3189	296
-85.2107	63.3189	296
-84.5708	63.3189	296
-83.3639	62.8911	294
-82.1655	62.4633	292
-82.0928	62.8911	294
-82.5655	63.7467	298
-81.3715	63.3189	296
-80.1861	62.8911	294
-79.5506	62.8911	294
-79.1835	63.105	295
-79.3445	63.7467	298
-79.2285	64.1746	300
-79.1039	64.6024	302
-78.7108	64.8163	303
-78.0558	64.8163	303
-77.1454	64.6024	302
-76.4925	64.6024	302
-75.8397	64.6024	302
-75.6848	65.0302	304
-74.534	64.6024	302
-73.3919	64.1746	300
-72.2584	63.7467	298
-70.4127	62.6772	293
-69.5411	62.4633	292
-68.4379	62.0354	290
-68.0448	62.2493	291
-67.8791	62.6772	293
-67.0162	62.4633	292
-66.6124	62.6772	293
-66.4293	63.105	295
-66.9067	64.1746	300
-66.0374	63.9607	299
-65.391	63.9607	299
-64.3116	63.5328	297
-63.0264	62.8911	294
-62.3909	62.8911	294
-62.1755	63.3189	296
-61.9514	63.7467	298
-61.5129	63.9607	299
-61.0701	64.1746	300
-60.2202	63.9607	299
-59.5738	63.9607	299
-58.1392	63.105	295
-56.9167	62.4633	292
-56.0927	62.2493	291
-55.4637	62.2493	291
-55.5883	63.105	295
-54.7644	62.8911	294
-53.5765	62.2493	291
-53.4933	62.8911	294
-53.0375	63.105	295
-52.3998	63.105	295
-51.7621	63.105	295
-51.471	63.5328	297
-50.3156	62.8911	294
-50.5249	63.9607	299
-50.379	64.6024	302
-49.3969	64.1746	300
-48.2609	63.5328	297
-47.1378	62.8911	294
-46.3441	62.6772	293
-45.3987	62.2493	291
-44.3081	61.6076	288
-43.5339	61.3937	287
-43.2125	61.8215	289
-43.1772	62.6772	293
-42.9794	63.3189	296
-42.6256	63.7467	298
-41.6997	63.3189	296
-41.3373	63.7467	298
-40.5565	63.5328	297
-38.8393	61.8215	289
-38.3468	62.0354	290
-37.7199	62.0354	290
-36.7093	61.3937	287
-36.2147	61.6076	288
-35.7157	61.8215	289
-35.0909	61.8215	289
-34.4662	61.8215	289
-33.7244	61.6076	288
-33.1018	61.6076	288
-32.8175	62.2493	291
-32.2991	62.4633	292
-31.8848	62.8911	294
-31.3555	63.105	295
-30.7178	63.105	295
-29.9781	62.8911	294
-29.3426	62.8911	294
-28.8047	63.105	295
-28.358	63.5328	297
-27.8092	63.7467	298
-27.1651	63.7467	298
-26.4319	63.5328	297
-25.7898	63.5328	297
-25.0631	63.3189	296
-24.1757	62.6772	293
-23.6227	62.8911	294
-22.9872	62.8911	294
-22.5797	63.5328	297
-21.9377	63.5328	297
-21.2239	63.3189	296
-20.9318	64.3885	301
-20.0116	63.5328	297
-19.4348	63.7467	298
-18.5383	62.8911	294
-18.0855	63.5328	297
-17.326	63.105	295
-16.6317	62.8911	294
-15.9962	62.8911	294
-15.3606	62.8911	294
-14.7752	63.105	295
-14.1375	63.105	295
-13.454	62.8911	294
-13.0364	63.9607	299
-12.1829	62.8911	294
-11.5081	62.6772	293
-10.9118	62.8911	294
-10.2413	62.6772	293
-9.64073	62.8911	294
-9.03581	63.105	295
-8.45504	63.5328	297
-7.7604	63.105	295
-7.12269	63.105	295
-6.44102	62.6772	293
-5.80764	62.6772	293
-5.22724	63.3189	296
-4.57187	63.105	295
-3.90749	62.6772	293
-3.26293	62.4633	292
-2.58665	61.3937	287
-1.95939	61.1798	286
-1.34114	61.1798	286
-0.725414	61.3937	287
-0.105733	61.8215	289
0.520798	62.0354	290
1.15165	62.2493	291
1.77459	62.0354	290
2.39321	61.8215	289
3.0075	61.6076	288
3.61747	61.3937	287
4.22312	61.1798	286
4.8583	61.3937	287
5.47871	61.3937	287
6.09912	61.3937	287
6.76636	61.8215	289
7.39109	61.8215	289
8.04357	62.0354	290
8.58077	61.3937	287
9.29736	62.0354	290
9.92426	62.0354	290
10.8422	63.7467	298
11.525	63.9607	299
11.7235	61.6076	288
12.2604	61.1798	286
12.7886	60.7519	284
13.4025	60.7519	284
14.3125	62.0354	290
14.8879	61.8215	289
15.459	61.6076	288
16.1374	61.8215	289
16.7041	61.6076	288
17.3267	61.6076	288
18.0116	61.8215	289
19.0232	63.105	295
19.7276	63.3189	296
20.4363	63.5328	297
21.0073	63.3189	296
21.5009	62.8911	294
22.2118	63.105	295
22.772	62.8911	294
23.5668	63.3189	296
24.0431	62.8911	294
24.8465	63.3189	296
24.5393	60.9658	285
25.1554	60.9658	285
25.7715	60.9658	285
26.5727	61.3937	287
27.1931	61.3937	287
27.6197	60.9658	285
28.434	61.3937	287
29.0544	61.3937	287
29.985	62.0354	290
30.4008	61.6076	288
31.131	61.8215	289
31.7558	61.8215	289
32.1564	61.3937	287
33.0053	61.8215	289
33.8627	62.2493	291
34.7288	62.6772	293
35.0002	62.0354	290
35.0128	60.9658	285
36.0039	61.6076	288
36.7537	61.8215	289
37.6371	62.2493	291
37.7401	61.3937	287
38.2269	61.1798	286
39.3884	62.0354	290
40.1533	62.2493	291
40.7824	62.2493	291
41.5537	62.4633	292
42.185	62.4633	292
43.2561	63.105	295
43.2986	62.2493	291
43.4748	61.6076	288
44.0974	61.6076	288
45.3411	62.4633	292
46.2872	62.8911	294
46.4439	62.2493	291
46.5877	61.6076	288
47.702	62.2493	291
48.6633	62.6772	293
49.6331	63.105	295
50.2708	63.105	295
50.736	62.8911	294
51.1968	62.6772	293
51.6533	62.4633	292
52.2845	62.4633	292
52.3721	61.8215	289
53.7303	62.6772	293
53.0649	61.1798	286
53.4955	60.9658	285
54.1115	60.9658	285
56.4559	62.8911	294
56.8972	62.6772	293
57.9233	63.105	295
58.561	63.105	295
58.5967	62.4633	292
58.2137	61.3937	287
59.8591	62.4633	292
59.8689	61.8215	289
60.2843	61.6076	288
60.6954	61.3937	287
61.5294	61.6076	288
62.3678	61.8215	289
62.7746	61.6076	288
62.9569	61.1798	286
63.3529	60.9658	285
63.2956	60.3241	282
64.3584	60.7519	284
65.6587	61.3937	287
66.0482	61.1798	286
66.6664	61.1798	286
67.2847	61.1798	286
68.8526	62.0354	290
70.1983	62.6772	293
71.0734	62.8911	294
71.2211	62.4633	292
71.1141	61.8215	289
71.9871	62.0354	290
72.3636	61.8215	289
72.9883	61.8215	289
73.3584	61.6076	288
73.9809	61.6076	288
74.8625	61.8215	289
76.0097	62.2493	291
77.6922	63.105	295
78.0644	62.8911	294
78.4322	62.6772	293
78.5259	62.2493	291
78.3389	61.6076	288
78.4132	61.1798	286
80.9658	62.6772	293
82.1561	63.105	295
79.9873	60.9658	285
80.6034	60.9658	285
81.2194	60.9658	285
84.1327	62.6772	293
85.634	63.3189	296
86.2738	63.3189	296
85.7392	62.4633	292
86.0746	62.2493	291
86.1078	61.8215	289
86.4324	61.6076	288
87.055	61.6076	288
88.5909	62.2493	291
88.6067	61.8215	289
87.6877	60.7519	284
89.2344	61.3937	287
88.9155	60.7519	284
89.2142	60.538	283
90.1434	60.7519	284
91.716	61.3937	287
92.9799	61.8215	289
93.6046	61.8215	289
93.5772	61.3937	287
92.8848	60.538	283
92.8358	60.1102	281
94.1083	60.538	283
94.7201	60.538	283
96.3424	61.1798	286
97.6387	61.6076	288
97.9201	61.3937	287
98.8839	61.6076	288
99.1609	61.3937	287
101.867	62.6772	293
102.851	62.8911	294
103.838	63.105	295
103.768	62.6772	293
103.332	62.0354	290
102.525	61.1798	286
102.061	60.538	283
104.487	61.6076	288
106.205	62.2493	291
108.302	63.105	295
109.309	63.3189	296
107.72	62.0354	290
106.853	61.1798	286
105.592	60.1102	281
106.577	60.3241	282
107.567	60.538	283
108.943	60.9658	285
109.944	61.1798	286
110.562	61.1798	286
110.792	60.9658	285
109.062	59.6824	279
109.272	59.4684	278
110.269	59.6824	279
112.859	60.7519	284
114.272	61.1798	286
116.095	61.8215	289
116.72	61.8215	289
117.751	62.0354	290
117.561	61.6076	288
118.184	61.6076	288
117.981	61.1798	286
117.77	60.7519	284
117.55	60.3241	282
118.16	60.3241	282
119.612	60.7519	284
120.649	60.9658	285
119.563	60.1102	281
119.315	59.6824	279
119.919	59.6824	279
120.522	59.6824	279
120.256	59.2545	277
120.855	59.2545	277
122.331	59.6824	279
125.578	60.9658	285
126.637	61.1798	286
126.81	60.9658	285
126.085	60.3241	282
126.245	60.1102	281
128.658	60.9658	285
128.821	60.7519	284
128.979	60.538	283
130.049	60.7519	284
129.282	60.1102	281
129.428	59.8963	280
130.497	60.1102	281
131.571	60.3241	282
131.712	60.1102	281
132.32	60.1102	281
132.927	60.1102	281
133.534	60.1102	281
134.619	60.3241	282
136.188	60.7519	284
136.802	60.7519	284
137.416	60.7519	284
137.058	60.3241	282
137.179	60.1102	281
137.296	59.8963	280
138.394	60.1102	281
138.507	59.8963	280
139.112	59.8963	280
139.717	59.8963	280
140.323	59.8963	280
140.928	59.8963	280
141.533	59.8963	280
142.646	60.1102	281
143.253	60.1102	281
145.397	60.7519	284
144.982	60.3241	282
145.076	60.1102	281
145.683	60.1102	281
146.291	60.1102	281
146.898	60.1102	281
146.981	59.8963	280
148.113	60.1102	281
149.25	60.3241	282
149.328	60.1102	281
149.935	60.1102	281
150.007	59.8963	280
153.84	61.1798	286
156.078	61.8215	289
156.161	61.6076	288
154.606	60.7519	284
154.127	60.3241	282
155.834	60.7519	284
159.753	62.0354	290
159.827	61.8215	289
158.786	61.1798	286
159.404	61.1798	286
161.141	61.6076	288
161.764	61.6076	288
160.131	60.7519	284
160.745	60.7519	284
160.791	60.538	283
161.973	60.7519	284
162.014	60.538	283
162.626	60.538	283
162.661	60.3241	282
162.692	60.1102	281
162.718	59.8963	280
163.907	60.1102	281
166.27	60.7519	284
168.059	61.1798	286
168.678	61.1798	286
169.296	61.1798	286
168.726	60.7519	284
168.744	60.538	283
167.56	59.8963	280
167.565	59.6824	279
168.168	59.6824	279
168.771	59.6824	279
170.588	60.1102	281
172.414	60.538	283
170.58	59.6824	279
170.57	59.4684	278
177.328	61.6076	288
175.479	60.7519	284
176.093	60.7519	284
181.063	62.2493	291
177.945	60.9658	285
179.188	61.1798	286
180.435	61.3937	287
-227.891	66.7677	309
-227.223	66.7677	309
-225.822	66.5516	308
-225.156	66.5516	308
-225.948	66.9838	310
-228.184	67.8481	314
-228.955	68.2803	316
-226.827	67.8481	314
-226.148	67.8481	314
-226.187	68.0642	315
-225.506	68.0642	315
-222.684	67.4159	312
-220.587	66.9838	310
-219.917	66.9838	310
-220.661	67.4159	312
-222.807	68.2803	316
-223.53	68.7124	318
-226.346	69.7928	323
-220.758	68.2803	316
-220.074	68.2803	316
-215.92	67.1999	311
-215.248	67.1999	311
-215.955	67.632	313
-216.654	68.0642	315
-217.345	68.4963	317
-216.659	68.4963	317
-217.337	68.9285	319
-215.289	68.4963	317
-215.28	68.7124	318
-215.268	68.9285	319
-213.906	68.7124	318
-209.195	67.4159	312
-208.521	67.4159	312
-206.514	66.9838	310
-205.844	66.9838	310
-205.836	67.1999	311
-205.823	67.4159	312
-205.806	67.632	313
-206.44	68.0642	315
-205.759	68.0642	315
-203.125	67.4159	312
-204.397	68.0642	315
-200.483	66.9838	310
-199.168	66.7677	309
-197.858	66.5516	308
-197.192	66.5516	308
-197.164	66.7677	309
-195.86	66.5516	308
-195.194	66.5516	308
-193.897	66.3356	307
-190.716	65.4713	303
-186.297	64.1748	297
-186.905	64.6069	299
-187.505	65.0391	301
-185.613	64.6069	299
-186.204	65.0391	301
-185.553	65.0391	301
-184.902	65.0391	301
-187.312	66.1195	306
-186.651	66.1195	306
-187.813	66.7677	309
-188.356	67.1999	311
-184.666	66.1195	306
-182.201	65.4713	303
-182.145	65.6873	304
-183.279	66.3356	307
-185.589	67.4159	312
-184.915	67.4159	312
-183.65	67.1999	311
-178.859	65.6873	304
-175.857	64.823	300
-175.793	65.0391	301
-175.142	65.0391	301
-175.071	65.2552	302
-176.151	65.9034	305
-175.492	65.9034	305
-175.405	66.1195	306
-174.744	66.1195	306
-174.651	66.3356	307
-174.554	66.5516	308
-172.759	66.1195	306
-171.536	65.9034	305
-170.316	65.6873	304
-168.543	65.2552	302
-168.446	65.4713	303
-168.345	65.6873	304
-168.239	65.9034	305
-167.58	65.9034	305
-166.373	65.6873	304
-165.171	65.4713	303
-163.973	65.2552	302
-162.238	64.823	300
-161.051	64.6069	299
-159.332	64.1748	297
-158.69	64.1748	297
-159.112	64.6069	299
-158.466	64.6069	299
-158.347	64.823	300
-158.224	65.0391	301
-158.097	65.2552	302
-156.923	65.0391	301
-155.753	64.823	300
-155.105	64.823	300
-154.456	64.823	300
-153.808	64.823	300
-153.67	65.0391	301
-153.527	65.2552	302
-153.381	65.4713	303
-152.726	65.4713	303
-151.067	65.0391	301
-150.416	65.0391	301
-149.766	65.0391	301
-150.601	65.6873	304
-149.451	65.4713	303
-147.814	65.0391	301
-147.652	65.2552	302
-147.973	65.6873	304
-147.8	65.9034	305
-147.141	65.9034	305
-146.001	65.6873	304
-143.91	65.0391	301
-142.307	64.6069	299
-141.187	64.3909	298
-140.543	64.3909	298
-138.96	63.9587	296
-137.385	63.5266	294
-137.215	63.7426	295
-137.04	63.9587	296
-136.861	64.1748	297
-135.76	63.9587	296
-134.664	63.7426	295
-134.026	63.7426	295
-132.936	63.5266	294
-132.751	63.7426	295
-133.009	64.1748	297
-132.367	64.1748	297
-131.725	64.1748	297
-132.407	64.823	300
-132.197	65.0391	301
-131.547	65.0391	301
-131.331	65.2552	302
-131.111	65.4713	303
-129.164	64.823	300
-127.659	64.3909	298
-127.015	64.3909	298
-125.946	64.1748	297
-124.882	63.9587	296
-123.403	63.5266	294
-121.932	63.0944	292
-120.886	62.8783	291
-120.257	62.8783	291
-119.628	62.8783	291
-118.181	62.4462	289
-118.776	63.0944	292
-118.55	63.3105	293
-119.124	63.9587	296
-121.286	65.4713	303
-121.029	65.6873	304
-119.976	65.4713	303
-118.927	65.2552	302
-118.666	65.4713	303
-118.4	65.6873	304
-116.968	65.2552	302
-112.079	62.8783	291
-112.216	63.3105	293
-114.629	65.0391	301
-115.114	65.6873	304
-114.457	65.6873	304
-113.051	65.2552	302
-111.282	64.6069	299
-110.636	64.6069	299
-110.357	64.823	300
-109.709	64.823	300
-109.06	64.823	300
-108.412	64.823	300
-107.763	64.823	300
-107.115	64.823	300
-107.176	65.2552	302
-105.818	64.823	300
-104.468	64.3909	298
-104.521	64.823	300
-103.526	64.6069	299
-102.535	64.3909	298
-101.549	64.1748	297
-100.907	64.1748	297
-100.603	64.3909	298
-99.2878	63.9587	296
-99.6477	64.6069	299
-100.326	65.4713	303
-98.684	64.823	300
-97.7087	64.6069	299
-99.01	65.9034	305
-96.7384	64.823	300
-96.0899	64.823	300
-95.4414	64.823	300
-94.7929	64.823	300
-92.8891	63.9587	296
-92.2492	63.9587	296
-92.2283	64.3909	298
-90.3548	63.5266	294
-89.4141	63.3105	293
-88.7807	63.3105	293
-88.1474	63.3105	293
-87.514	63.3105	293
-87.4736	63.7426	295
-87.4247	64.1748	297
-86.4904	63.9587	296
-85.5605	63.7426	295
-84.0592	63.0944	292
-82.8565	62.6623	290
-82.5132	62.8783	291
-81.6028	62.6623	290
-81.5343	63.0944	292
-82.0114	63.9587	296
-81.6464	64.1748	297
-81.0044	64.1748	297
-80.9035	64.6069	299
-79.9887	64.3909	298
-79.6108	64.6069	299
-79.2285	64.823	300
-78.8419	65.0391	301
-77.9315	64.823	300
-77.283	64.823	300
-76.1236	64.3909	298
-75.7327	64.6069	299
-74.8352	64.3909	298
-74.44	64.6069	299
-73.3	64.1748	297
-73.1473	64.6069	299
-71.2885	63.5266	294
-70.4127	63.3105	293
-69.7793	63.3105	293
-68.6739	62.8783	291
-68.0448	62.8783	291
-67.6475	63.0944	292
-66.7867	62.8783	291
-66.385	63.0944	292
-66.2042	63.5266	294
-65.7916	63.7426	295
-65.5956	64.1748	297
-63.4227	62.6623	290
-62.7958	62.6623	290
-62.3833	62.8783	291
-62.1787	63.3105	293
-61.7553	63.5266	294
-61.5356	63.9587	296
-59.8671	62.8783	291
-59.8487	63.5266	294
-59.2132	63.5266	294
-58.7769	63.7426	295
-57.3508	62.8783	291
-56.7218	62.8783	291
-55.5144	62.2301	288
-55.2731	62.6623	290
-55.023	63.0944	292
-54.3918	63.0944	292
-53.3924	62.6623	290
-52.9474	62.8783	291
-52.6779	63.3105	293
-52.0446	63.3105	293
-51.7621	63.7426	295
-50.2579	62.6623	290
-49.8021	62.8783	291
-49.68	63.5266	294
-48.8776	63.3105	293
-47.7503	62.6623	290
-47.1234	62.6623	290
-46.3362	62.4462	289
-45.7114	62.4462	289
-44.7747	62.014	287
-44.462	62.4462	289
-43.9889	62.6623	290
-43.6611	63.0944	292
-43.3246	63.5266	294
-42.8342	63.7426	295
-42.3396	63.9587	296
-40.7135	62.4462	289
-40.0888	62.4462	289
-39.191	62.014	287
-38.7049	62.2301	288
-38.0824	62.2301	288
-37.4598	62.2301	288
-36.7093	62.014	287
-36.0889	62.014	287
-35.4685	62.014	287
-34.8481	62.014	287
-34.2277	62.014	287
-33.6073	62.014	287
-33.5615	63.0944	292
-32.4792	62.2301	288
-32.2991	63.0944	292
-31.8848	63.5266	294
-31.3555	63.7426	295
-30.7178	63.7426	295
-30.0801	63.7426	295
-29.4424	63.7426	295
-28.5118	63.0944	292
-27.7851	62.8783	291
-26.876	62.2301	288
-26.2535	62.2301	288
-25.6309	62.2301	288
-25.5293	63.5266	294
-24.8091	63.3105	293
-23.9282	62.6623	290
-23.221	62.4462	289
-22.6744	62.6623	290
-22.2756	63.3105	293
-22.1593	64.823	300
-21.5107	64.823	300
-20.7927	64.6069	299
-20.0116	64.1748	297
-19.1087	63.3105	293
-18.16	62.2301	288
-17.781	63.0944	292
-17.2085	63.3105	293
-16.462	62.8783	291
-15.6697	62.2301	288
-15.2039	62.8783	291
-14.5748	62.8783	291
-14.1375	63.7426	295
-13.4082	63.3105	293
-12.9492	64.1748	297
-12.1415	63.3105	293
-11.4688	63.0944	292
-10.7634	62.6623	290
-10.1714	62.8783	291
-9.54235	62.8783	291
-8.94392	63.0944	292
-8.36964	63.5266	294
-7.78671	63.9587	296
-7.09855	63.5266	294
-6.39706	62.8783	291
-5.768	62.8783	291
-5.12128	62.6623	290
-4.49438	62.6623	290
-3.84081	62.2301	288
-3.21824	62.2301	288
-2.56862	61.5819	285
-1.93198	60.9336	282
-1.33176	61.3658	284
-0.715303	61.1497	283
-0.103904	61.3658	284
0.517207	62.2301	288
1.14374	62.4462	289
1.76847	62.4462	289
2.42633	63.3105	293
3.07016	63.5266	294
3.59226	61.5819	285
4.22312	61.798	286
4.8583	62.014	287
5.45962	61.798	286
6.07787	61.798	286
6.62588	61.1497	283
7.21207	60.9336	282
7.87715	61.3658	284
8.34158	60.2854	279
8.91264	60.0693	278
9.61626	60.7176	281
10.2965	61.1497	283
10.9853	61.5819	285
11.6421	61.798	286
12.2604	61.798	286
12.8336	61.5819	285
13.4025	61.3658	284
13.9671	61.1497	283
14.5788	61.1497	283
15.1369	60.9336	282
15.8582	61.3658	284
16.5881	61.798	286
17.3869	62.4462	289
17.9493	62.2301	288
18.5074	62.014	287
19.2611	62.4462	289
20.161	63.3105	293
20.8654	63.5266	294
21.3547	63.0944	292
21.9859	63.0944	292
22.6946	63.3105	293
23.4872	63.7426	295
23.8796	63.0944	292
24.6787	63.5266	294
24.4532	61.3658	284
25.0671	61.3658	284
25.9523	62.014	287
26.3875	61.5819	285
27.0036	61.5819	285
27.6197	61.5819	285
28.2358	61.5819	285
28.9531	61.798	286
29.5714	61.798	286
30.6119	62.6623	290
31.2388	62.6623	290
31.6459	62.2301	288
32.1564	62.014	287
32.6626	61.798	286
33.63	62.4462	289
34.1362	62.2301	288
34.276	61.3658	284
34.6442	60.9336	282
35.7539	61.798	286
36.245	61.5819	285
36.8611	61.5819	285
37.6086	61.798	286
38.8952	62.8783	291
39.3884	62.6623	290
40.0153	62.6623	290
40.5021	62.4462	289
40.8422	62.014	287
41.4626	62.014	287
42.3763	62.4462	289
42.8522	62.2301	288
43.0219	61.5819	285
43.638	61.5819	285
44.5647	62.014	287
45.3425	62.2301	288
45.3267	61.3658	284
45.9406	61.3658	284
47.0463	62.014	287
47.6667	62.014	287
48.6236	62.4462	289
49.7596	63.0944	292
50.2183	62.8783	291
50.3231	62.2301	288
50.415	61.5819	285
51.0311	61.5819	285
52.0096	62.014	287
52.8134	62.2301	288
53.8071	62.6623	290
53.6832	61.798	286
54.4913	62.014	287
54.3436	61.1497	283
55.1495	61.3658	284
57.727	63.5266	294
58.164	63.3105	293
57.192	61.5819	285
57.6052	61.3658	284
57.8092	60.9336	282
58.6259	61.1497	283
59.6563	61.5819	285
60.2724	61.5819	285
61.1022	61.798	286
62.152	62.2301	288
62.7746	62.2301	288
63.3972	62.2301	288
63.3529	61.5819	285
63.7445	61.3658	284
64.3584	61.3658	284
65.4299	61.798	286
66.2791	62.014	287
66.6664	61.798	286
67.5199	62.014	287
67.9029	61.798	286
68.7607	62.014	287
69.1394	61.798	286
69.7577	61.798	286
70.622	62.014	287
70.9942	61.798	286
71.6124	61.798	286
72.2307	61.798	286
73.3584	62.2301	288
73.724	62.014	287
74.3445	62.014	287
75.2261	62.2301	288
75.8486	62.2301	288
76.7367	62.4462	289
77.8969	62.8783	291
77.1767	61.798	286
77.2509	61.3658	284
78.139	61.5819	285
80.6894	63.0944	292
78.8142	61.1497	283
79.1453	60.9336	282
79.7549	60.9336	282
80.6495	61.1497	283
82.697	62.2301	288
84.1874	62.8783	291
84.8165	62.8783	291
85.7392	63.0944	292
85.483	62.4462	289
85.8098	62.2301	288
84.6317	60.9336	282
87.055	62.2301	288
87.6776	62.2301	288
88.6067	62.4462	289
87.0701	60.9336	282
87.3688	60.7176	281
87.9763	60.7176	281
88.5837	60.7176	281
90.7782	61.798	286
91.3964	61.798	286
92.6581	62.2301	288
93.9285	62.6623	290
92.5991	61.3658	284
91.2437	60.0693	278
91.8447	60.0693	278
93.1107	60.5015	280
93.716	60.5015	280
95.3319	61.1497	283
96.6217	61.5819	285
97.5789	61.798	286
97.1671	61.1497	283
98.4699	61.5819	285
98.7383	61.3658	284
99.0024	61.1497	283
99.6142	61.1497	283
100.226	61.1497	283
100.125	60.7176	281
100.016	60.2854	279
101.34	60.7176	281
103.399	61.5819	285
105.11	62.2301	288
105.365	62.014	287
105.985	62.014	287
105.12	61.1497	283
104.985	60.7176	281
104.841	60.2854	279
105.822	60.5015	280
107.567	61.1497	283
108.561	61.3658	284
110.328	62.014	287
110.562	61.798	286
110.792	61.5819	285
111.017	61.3658	284
111.631	61.3658	284
111.85	61.1497	283
112.461	61.1497	283
113.473	61.3658	284
114.89	61.798	286
115.508	61.798	286
116.126	61.798	286
115.928	61.3658	284
116.132	61.1497	283
117.156	61.3658	284
117.355	61.1497	283
117.55	60.9336	282
116.903	60.2854	279
116.664	59.8533	277
116.839	59.6372	276
117.861	59.8533	277
119.315	60.2854	279
120.778	60.7176	281
119.658	59.8533	277
121.125	60.2854	279
123.909	61.3658	284
122.331	60.2854	279
123.815	60.7176	281
126.637	61.798	286
126.365	61.3658	284
125.638	60.7176	281
124.897	60.0693	278
125.95	60.2854	279
124.285	59.205	274
126.244	59.8533	277
129.133	60.9336	282
128.362	60.2854	279
128.965	60.2854	279
129.104	60.0693	278
129.705	60.0693	278
129.368	59.6372	276
129.965	59.6372	276
131.035	59.8533	277
131.634	59.8533	277
132.232	59.8533	277
133.311	60.0693	278
134.393	60.2854	279
135.48	60.5015	280
137.058	60.9336	282
137.667	60.9336	282
138.277	60.9336	282
136.916	60.0693	278
137.023	59.8533	277
136.131	59.205	274
137.222	59.4211	275
138.819	59.8533	277
139.418	59.8533	277
140.522	60.0693	278
142.646	60.7176	281
142.234	60.2854	279
142.837	60.2854	279
142.926	60.0693	278
143.527	60.0693	278
146.202	60.9336	282
146.291	60.7176	281
146.898	60.7176	281
146.456	60.2854	279
147.586	60.5015	280
148.191	60.5015	280
149.859	60.9336	282
149.402	60.5015	280
149.471	60.2854	279
150.074	60.2854	279
151.218	60.5015	280
151.823	60.5015	280
152.973	60.7176	281
153.58	60.7176	281
152.541	60.0693	278
157.549	61.798	286
158.167	61.798	286
157.675	61.3658	284
157.732	61.1497	283
157.784	60.9336	282
156.709	60.2854	279
158.44	60.7176	281
159.613	60.9336	282
159.654	60.7176	281
160.262	60.7176	281
160.869	60.7176	281
162.051	60.9336	282
162.084	60.7176	281
160.955	60.0693	278
161.556	60.0693	278
162.157	60.0693	278
162.172	59.8533	277
161.008	59.205	274
161.6	59.205	274
161.009	58.7729	272
161.597	58.7729	272
163.377	59.205	274
163.371	58.989	273
165.162	59.4211	275
166.962	59.8533	277
167.561	59.8533	277
167.553	59.6372	276
171.196	60.7176	281
171.803	60.7176	281
174.865	61.5819	285
176.712	62.014	287
173.626	60.7176	281
174.233	60.7176	281
173.596	60.2854	279
172.326	59.6372	276
174.802	60.2854	279
177.92	61.1497	283
-224.941	66.5627	305
-224.281	66.5627	305
-222.889	66.3444	304
-222.232	66.3444	304
-223.032	66.7809	306
-224.551	67.4356	309
-221.709	66.7809	306
-223.215	67.4356	309
-222.547	67.4356	309
-223.315	67.8721	311
-224.075	68.3086	313
-223.398	68.3086	313
-222.721	68.3086	313
-221.335	68.0903	312
-220.661	68.0903	312
-221.397	68.5268	314
-222.827	69.1815	317
-225.645	70.2727	322
-215.169	67.2174	308
-214.503	67.2174	308
-212.449	66.7809	306
-212.479	66.9991	307
-212.505	67.2174	308
-213.215	67.6539	310
-213.916	68.0903	312
-213.925	68.3086	313
-213.249	68.3086	313
-213.251	68.5268	314
-213.927	68.9633	316
-211.894	68.5268	314
-209.197	67.8721	311
-207.184	67.4356	309
-206.516	67.4356	309
-204.515	66.9991	307
-203.852	66.9991	307
-204.512	67.4356	309
-202.524	66.9991	307
-203.176	67.4356	309
-203.163	67.6539	310
-203.8	68.0903	312
-197.917	66.3444	304
-198.557	66.7809	306
-198.543	66.9991	307
-199.168	67.4356	309
-199.143	67.6539	310
-198.472	67.6539	310
-196.526	67.2174	308
-195.86	67.2174	308
-192.026	66.1262	303
-191.371	66.1262	303
-185.68	64.3803	295
-185.67	64.5985	296
-185.655	64.8168	297
-185.013	64.8168	297
-183.13	64.3803	295
-183.11	64.5985	296
-184.32	65.2532	299
-184.902	65.6897	301
-185.476	66.1262	303
-184.821	66.1262	303
-185.381	66.5627	305
-185.328	66.7809	306
-184.063	66.5627	305
-181.599	65.908	302
-180.347	65.6897	301
-181.488	66.3444	304
-183.21	67.2174	308
-184.915	68.0903	312
-178.335	65.908	302
-175.917	65.2532	299
-175.271	65.2532	299
-174.041	65.035	298
-173.396	65.035	298
-173.332	65.2532	299
