265.692	-94.5386	1324
270.785	-95.3241	1335
280.026	-97.5376	1366
280.493	-96.6807	1354
280.489	-95.6811	1340
282.963	-95.5383	1338
288.419	-96.3951	1350
293.711	-97.1806	1361
299.487	-98.1088	1374
302.677	-98.1802	1375
304.316	-97.7518	1369
308.622	-98.1802	1375
310.915	-97.966	1372
310.449	-96.895	1357
313.613	-96.9664	1358
315.383	-96.6093	1353
318.073	-96.5379	1352
322.658	-97.0378	1359
329.668	-98.2516	1376
334.819	-98.8943	1385
337.081	-98.68	1382
338.346	-98.1802	1375
337.843	-97.1806	1361
341.286	-97.3234	1363
342.717	-96.895	1357
343.867	-96.3951	1350
348.07	-96.7521	1355
352.553	-97.1806	1361
357.846	-97.8232	1370
361.861	-98.1088	1374
364.566	-98.0374	1373
378.241	-100.894	1413
381.836	-101.036	1415
375.646	-98.6086	1381
373.971	-97.3948	1364
374.708	-96.8235	1356
382.653	-98.1088	1374
384.22	-97.7518	1369
380.108	-95.9667	1344
371.9	-93.182	1305
378.453	-94.1102	1318
386.51	-95.3955	1336
396.976	-97.252	1362
402.27	-97.8232	1370
401.09	-96.8235	1356
402.234	-96.3951	1350
404.252	-96.1809	1347
408.675	-96.5379	1352
408.553	-95.8239	1342
407.775	-94.967	1330
406.019	-93.896	1315
407.618	-93.6104	1311
416.087	-94.8956	1329
425.265	-96.3237	1349
433.577	-97.5376	1366
435.252	-97.252	1362
433.37	-96.1809	1347
434.986	-95.8953	1343
434.955	-95.2527	1334
438.495	-95.3955	1336
447.991	-96.8235	1356
454.58	-97.609	1367
463.559	-98.8943	1385
461.164	-97.7518	1369
459.038	-96.6807	1354
457.188	-95.6811	1340
456.308	-94.8956	1329
453.307	-93.6818	1312
455.448	-93.539	1310
459.679	-93.8246	1314
467.448	-94.8242	1328
475.985	-95.9667	1344
479.603	-96.1095	1346
481.437	-95.8953	1343
478.931	-94.8242	1328
478.536	-94.1816	1319
480.658	-94.0388	1317
487.91	-94.8956	1329
498.538	-96.3951	1350
503.314	-96.7521	1355
516.33	-98.68	1382
518.19	-98.4658	1379
518.904	-98.0374	1373
517.311	-97.1806	1361
512.225	-95.6811	1340
503.974	-93.6104	1311
501.009	-92.5393	1296
503.033	-92.3965	1294
514.039	-93.896	1315
525.923	-95.5383	1338
541.858	-97.8946	1371
551.18	-99.0371	1387
550.981	-98.4658	1379
553.159	-98.323	1377
559.771	-98.9657	1386
561.955	-98.8229	1384
553.925	-96.895	1357
549.882	-95.6811	1340
552.779	-95.6811	1340
556.09	-95.7525	1341
564.825	-96.7521	1355
571.106	-97.3234	1363
570.683	-96.7521	1355
573.189	-96.6807	1354
570.585	-95.7525	1341
563.22	-94.0388	1317
561.769	-93.3248	1307
569.346	-94.1102	1318
582.18	-95.7525	1341
590.315	-96.6093	1353
592.363	-96.4665	1351
591.317	-95.8239	1342
592.004	-95.4669	1337
593.56	-95.2527	1334
593.761	-94.8242	1328
608.313	-96.6807	1354
618.914	-97.8946	1371
625.053	-98.3944	1378
623.93	-97.7518	1369
623.684	-97.252	1362
622.948	-96.6807	1354
620.328	-95.8239	1342
624.157	-95.9667	1344
626.13	-95.8239	1342
629.031	-95.8239	1342
627.223	-95.1099	1332
623.479	-94.1102	1318
636.308	-95.6097	1339
637.293	-95.3241	1335
636.822	-94.8242	1328
641.62	-95.1099	1332
649.338	-95.8239	1342
659.529	-96.895	1357
667.833	-97.6804	1368
684.519	-99.6797	1396
703.79	-102.036	1429
703.911	-101.608	1423
696.554	-100.108	1402
690.603	-98.8229	1384
688.583	-98.1088	1374
691.553	-98.1088	1374
693.512	-97.966	1372
685.818	-96.4665	1351
678.032	-94.967	1330
669.644	-93.3962	1308
672.986	-93.4676	1309
686.658	-94.967	1330
700.939	-96.5379	1352
710.629	-97.4662	1365
717.239	-97.966	1372
719.155	-97.8232	1370
721.59	-97.7518	1369
724.549	-97.7518	1369
731.76	-98.323	1377
734.203	-98.2516	1376
737.713	-98.323	1377
741.766	-98.4658	1379
738.806	-97.6804	1368
733.088	-96.5379	1352
730.566	-95.8239	1342
728.549	-95.1813	1333
724.297	-94.253	1320
723.294	-93.7532	1313
728.898	-94.1102	1318
738.409	-94.967	1330
739.612	-94.7528	1327
741.362	-94.61	1325
748.158	-95.1099	1332
752.729	-95.3241	1335
755.615	-95.3241	1335
758.5	-95.3241	1335
762.527	-95.4669	1337
767.135	-95.6811	1340
772.33	-95.9667	1344
781.003	-96.6807	1354
787.404	-97.1092	1360
787.439	-96.7521	1355
786.285	-96.2523	1348
787.442	-96.0381	1345
790.35	-96.0381	1345
797.386	-96.5379	1352
799.124	-96.3951	1350
793.725	-95.3955	1336
790.054	-94.61	1325
786.336	-93.8246	1314
790.978	-94.0388	1317
799.25	-94.6814	1326
803.931	-94.8956	1329
800.733	-94.1816	1319
796.883	-93.3962	1308
770.975	-90.0402	1261
720.934	-83.8995	1175
-235.636	-87.5915	1265
-239.161	-89.9457	1299
-241.448	-91.8845	1327
-244.512	-94.1695	1360
-241.217	-94.031	1358
-239.158	-94.3772	1363
-237.079	-94.7234	1368
-231.725	-93.7541	1354
-226.771	-92.9232	1342
-223.87	-92.9232	1342
-219.981	-92.5077	1336
-217.58	-92.7154	1339
-214.044	-92.4385	1335
-211.791	-92.7154	1339
-209.989	-93.2001	1346
-206.925	-93.1309	1345
-203.714	-92.9924	1343
-202.306	-93.6848	1353
-199.529	-93.7541	1354
-197.183	-94.031	1358
-194.533	-94.1695	1360
-192.016	-94.3772	1363
-190.04	-94.8619	1370
-186.669	-94.6542	1367
-183.042	-94.308	1362
-180.627	-94.585	1366
-177.284	-94.3772	1363
-174.593	-94.5157	1365
-171.391	-94.3772	1363
-168.939	-94.6542	1367
-168.412	-96.0391	1387
-165.295	-95.9698	1386
-163.352	-96.593	1395
-158.843	-95.6928	1382
-154.84	-95.0697	1373
-151.43	-94.7927	1369
-147.928	-94.4465	1364
-144.873	-94.3772	1363
-141.614	-94.1695	1360
-137.757	-93.5463	1351
-134.038	-92.9924	1343
-131.525	-93.2694	1347
-129.568	-93.9618	1357
-127.475	-94.585	1366
-124.977	-94.9312	1371
-123.349	-95.9698	1386
-120.7	-96.2468	1390
-117.187	-95.8313	1384
-113.453	-95.2082	1375
-110.4	-95.1389	1374
-107.977	-95.6236	1381
-105.524	-96.1083	1388
-102.154	-95.7621	1383
-99.3079	-95.9006	1385
-96.8007	-96.3853	1392
-93.9264	-96.5238	1394
-91.6303	-97.2854	1405
-88.5931	-97.2854	1405
-84.6425	-96.2468	1390
-80.4631	-94.8619	1370
-76.8227	-94.031	1358
-73.5062	-93.5463	1351
-70.9514	-94.031	1358
-68.7671	-95.0697	1373
-66.2783	-95.7621	1383
-63.1971	-95.6236	1381
-59.9938	-95.2774	1376
-56.9364	-95.1389	1374
-54.0448	-95.2774	1376
-51.627	-96.316	1391
-49.1443	-97.3547	1406
-46.7608	-98.7395	1426
-43.7088	-98.8087	1427
-39.9408	-97.1469	1403
-36.6186	-96.3853	1392
-33.7543	-96.8007	1398
-30.8641	-97.2162	1404
-27.8291	-97.2162	1404
-24.5998	-96.4545	1393
-21.3561	-95.4159	1378
-18.2972	-95.0004	1372
-15.4654	-95.8313	1384
-12.6629	-97.2854	1405
-9.72843	-98.3241	1420
-6.67286	-98.5318	1423
-3.60432	-98.7395	1426
-0.513666	-97.2162	1404
2.51779	-97.0777	1402
5.48915	-96.0391	1387
8.53028	-96.5238	1394
11.6679	-97.5624	1409
14.6929	-97.4239	1407
17.7596	-97.5624	1409
20.8055	-97.5624	1409
24.0714	-98.4625	1422
27.0881	-98.2548	1419
29.9643	-97.6316	1410
32.8016	-97.0084	1401
35.7279	-96.7315	1397
38.6369	-96.4545	1393
42.0069	-97.2854	1405
45.1403	-97.4931	1408
48.492	-98.1163	1417
51.737	-98.4625	1422
54.8495	-98.5318	1423
57.7628	-98.2548	1419
60.9161	-98.3933	1421
64.1229	-98.601	1424
67.2484	-98.6703	1425
70.0821	-98.3241	1420
72.0699	-96.87	1399
75.3089	-97.1469	1403
78.4534	-97.2854	1405
81.4906	-97.2854	1405
84.1067	-96.8007	1398
86.2562	-95.8313	1384
88.7322	-95.2774	1376
92.0399	-95.6236	1381
96.6767	-97.2854	1405
101.204	-98.7395	1426
105.53	-99.9166	1443
108.8	-100.055	1445
111.072	-99.2934	1434
113.535	-98.7395	1426
115.227	-97.5624	1409
116.93	-96.4545	1393
118.65	-95.4159	1378
120.746	-94.7234	1368
123.432	-94.5157	1365
126.105	-94.308	1362
129.428	-94.585	1366
132.865	-94.9312	1371
137.216	-95.9006	1385
140.413	-96.0391	1387
144.858	-97.0084	1401
150.42	-98.6703	1425
155.871	-100.194	1447
159.878	-100.748	1455
163.023	-100.748	1455
165.597	-100.401	1450
168.848	-100.471	1451
172.222	-100.609	1453
175.001	-100.401	1450
176.047	-99.2242	1433
177.019	-98.0471	1416
178.3	-97.0777	1402
180.684	-96.7315	1397
182.126	-95.9006	1385
185.387	-96.0391	1387
189.472	-96.593	1395
192.488	-96.593	1395
195.643	-96.6622	1396
198.234	-96.4545	1393
200.379	-96.0391	1387
201.177	-95.0004	1372
203.846	-94.8619	1370
211.487	-97.0084	1401
214.668	-97.0777	1402
215.836	-96.2468	1390
216.007	-95.0004	1372
220.569	-95.6928	1382
226.468	-96.9392	1400
231.134	-97.6316	1410
232.355	-96.87	1399
232.35	-95.6236	1381
232.098	-94.308	1362
233.662	-93.7541	1354
235.715	-93.4079	1349
245.353	-96.0391	1387
250.679	-96.9392	1400
251.168	-95.9698	1386
252.698	-95.4159	1378
254.192	-94.8619	1370
257.529	-95.0004	1372
261.824	-95.4851	1379
264.613	-95.4159	1378
263.514	-93.9618	1357
259.968	-91.6768	1324
258.065	-90.015	1300
259.672	-89.5995	1294
266.526	-90.9844	1314
275.106	-92.9232	1342
281.322	-94.031	1358
283.211	-93.6848	1353
284.867	-93.2694	1347
288.206	-93.4079	1349
293.711	-94.2388	1361
298.397	-94.7927	1369
301.797	-94.9312	1371
302.76	-94.308	1362
304.358	-93.8925	1356
306.382	-93.6156	1352
310.449	-93.9618	1357
311.304	-93.3386	1348
312.586	-92.8539	1341
314.544	-92.5769	1337
318.147	-92.7847	1340
324.877	-93.8925	1356
331.192	-94.8619	1370
334.398	-94.9312	1371
334.163	-94.031	1358
337.098	-94.031	1358
340.284	-94.1003	1359
343.727	-94.2388	1361
344.122	-93.5463	1351
346.529	-93.4079	1349
351.258	-93.8925	1356
356.54	-94.5157	1365
361.071	-94.9312	1371
363.504	-94.7927	1369
372.352	-96.316	1391
369.692	-94.8619	1370
365.038	-92.9232	1342
367.939	-92.9232	1342
375.814	-94.1695	1360
383.488	-95.3466	1377
379.448	-93.6156	1352
369.079	-90.3612	1305
360.5	-87.5915	1265
370.701	-89.3918	1291
385.642	-92.3	1333
398.142	-94.585	1366
406.674	-95.9006	1385
412.33	-96.5238	1394
404.021	-93.8925	1356
406.052	-93.6848	1353
411.698	-94.308	1362
416.773	-94.7927	1369
417.586	-94.308	1362
419.913	-94.1695	1360
420.676	-93.6848	1353
423.914	-93.7541	1354
433.146	-95.1389	1374
429.768	-93.7541	1354
432.695	-93.7541	1354
438.518	-94.3772	1363
438.549	-93.7541	1354
436.259	-92.6462	1338
441.121	-93.0616	1344
448.321	-93.9618	1357
455.91	-94.9312	1371
457.2	-94.585	1366
454.763	-93.4771	1350
452.257	-92.3692	1334
452.411	-91.8153	1326
451.158	-90.9844	1314
447.434	-89.6688	1295
447.452	-89.1148	1287
453.032	-89.6688	1295
458.648	-90.2227	1303
465.006	-90.9151	1313
469.27	-91.1921	1317
472.475	-91.2613	1318
472.439	-90.7074	1310
469.466	-89.5995	1294
468.249	-88.8379	1283
472.491	-89.1148	1287
478.966	-89.8073	1297
485.113	-90.4304	1306
493.166	-91.3998	1320
500.153	-92.1615	1331
512.857	-93.9618	1357
519.591	-94.6542	1367
509.167	-92.2307	1332
502.436	-90.4997	1307
499.076	-89.3918	1291
502.256	-89.461	1292
510.521	-90.4304	1306
525.137	-92.5077	1336
540.277	-94.6542	1367
547.206	-95.3466	1377
552.58	-95.7621	1383
553.962	-95.4851	1379
556.943	-95.4851	1379
557.488	-95.0697	1373
549.435	-93.2001	1346
543.317	-91.6768	1324
549.066	-92.1615	1331
557.334	-93.0616	1344
568.994	-94.5157	1365
573.62	-94.7927	1369
579.107	-95.2082	1375
578.269	-94.585	1366
574.414	-93.4771	1350
571.773	-92.5769	1337
569.935	-91.8153	1326
575.394	-92.2307	1332
585.219	-93.3386	1348
593.805	-94.2388	1361
594.116	-93.8233	1355
592.639	-93.1309	1345
593.776	-92.8539	1341
595.34	-92.6462	1338
594.655	-92.0922	1330
606.516	-93.4771	1350
615.754	-94.4465	1364
616.435	-94.1003	1359
612.992	-93.1309	1345
610.862	-92.3692	1334
615.586	-92.6462	1338
617.554	-92.5077	1336
622.764	-92.8539	1341
626.13	-92.9232	1342
629.031	-92.9232	1342
635.228	-93.4079	1349
640.509	-93.7541	1354
639.635	-93.2001	1346
636.816	-92.3692	1334
641.618	-92.6462	1338
647.882	-93.1309	1345
654.176	-93.6156	1352
658.557	-93.8233	1355
666.856	-94.585	1366
678.145	-95.7621	1383
687.537	-96.6622	1396
688.576	-96.3853	1392
683.139	-95.2082	1375
682.12	-94.6542	1367
686.077	-94.7927	1369
687.527	-94.585	1366
687.952	-94.2388	1361
686.325	-93.6156	1352
678.542	-92.1615	1331
674.764	-91.2613	1318
676.585	-91.1229	1316
688.723	-92.3692	1334
700.939	-93.6156	1352
710.109	-94.4465	1364
713.58	-94.5157	1365
718.105	-94.7234	1368
724.752	-95.2082	1375
726.137	-95.0004	1372
731.76	-95.3466	1377
733.136	-95.1389	1374
731.284	-94.5157	1365
732.083	-94.2388	1361
734.486	-94.1695	1360
731.461	-93.4079	1349
730.022	-92.8539	1341
730.735	-92.5769	1337
731.979	-92.3692	1334
725.498	-91.1921	1317
732.216	-91.6768	1324
741.74	-92.5077	1336
744.071	-92.4385	1335
742.481	-91.8845	1327
749.281	-92.3692	1334
754.984	-92.7154	1339
759.011	-92.8539	1341
759.637	-92.5769	1337
762.527	-92.5769	1337
757.975	-91.6768	1324
763.136	-91.9538	1328
775.812	-93.1309	1345
780.457	-93.3386	1348
784.533	-93.4771	1350
785.118	-93.2001	1346
786.271	-92.9924	1343
790.937	-93.2001	1346
794.437	-93.2694	1347
794.981	-92.9924	1343
784.814	-91.4691	1321
776.937	-90.2227	1303
777.359	-89.9457	1299
784.972	-90.4997	1307
796.236	-91.4691	1321
802.721	-91.8845	1327
806.804	-92.023	1329
799.929	-90.9151	1313
769.141	-87.1068	1258
711.731	-80.3211	1160
-229.489	-82.6435	1232
-230.876	-84.1193	1254
-236.899	-87.3392	1302
-236.781	-88.3454	1317
-236.421	-89.2845	1331
-236.877	-90.5591	1350
-237.252	-91.8336	1369
-234.464	-91.9007	1370
-226.602	-89.9553	1341
-224.704	-90.3578	1347
-225.414	-91.8336	1369
-223.43	-92.2361	1375
-219.816	-91.9678	1371
-213.847	-90.6932	1352
-207.18	-89.0833	1328
-200.925	-87.6075	1306
-202.956	-89.7541	1338
-200.661	-90.0224	1342
-199.381	-90.7603	1353
-196.892	-90.9615	1356
-194.104	-91.0286	1357
-191.593	-91.2299	1360
-189.347	-91.5653	1365
-185.986	-91.364	1362
-183.177	-91.4311	1363
-180.759	-91.6994	1367
-177.544	-91.5653	1365
-174.593	-91.5653	1365
-171.265	-91.364	1362
-168.939	-91.6994	1367
-166.834	-92.169	1374
-164.579	-92.5715	1380
-161.362	-92.4373	1378
-157.693	-92.0348	1372
-154.051	-91.6323	1366
-150.655	-91.364	1362
-147.928	-91.4982	1364
-144.767	-91.364	1362
-141.51	-91.1628	1359
-137.451	-90.4249	1348
-134.537	-90.4249	1348
-132.111	-90.7603	1353
-130.141	-91.4311	1363
-127.288	-91.4982	1364
-124.066	-91.2969	1361
-120.234	-90.6261	1351
-120.005	-92.7056	1382
-116.51	-92.3032	1376
-113.453	-92.2361	1375
-109.677	-91.5653	1365
-106.179	-91.0957	1358
-103.395	-91.2299	1360
-101.268	-91.9678	1371
-99.1645	-92.7727	1383
-97.4266	-93.9802	1401
-95.1392	-94.7181	1412
-92.4129	-95.0535	1417
-89.4128	-95.1206	1418
-86.1648	-94.9193	1415
-83.106	-94.9193	1415
-80.1603	-95.0535	1417
-77.6413	-95.7243	1427
-74.9745	-96.2609	1435
-71.4717	-95.7243	1427
-67.3806	-94.3156	1406
-63.792	-93.5106	1394
-60.735	-93.4435	1393
-57.5994	-93.2423	1390
-54.8303	-93.6448	1396
-52.1466	-94.2485	1405
-49.2142	-94.4497	1408
-46.2361	-94.5839	1410
-43.3106	-94.8522	1414
-40.2824	-94.9193	1415
-37.4604	-95.523	1424
-34.4545	-95.7243	1427
-31.3917	-95.7914	1428
-28.3444	-95.9255	1430
-25.1296	-95.456	1423
-21.697	-93.9131	1400
-18.6706	-93.9131	1400
-15.7671	-94.651	1411
-12.9963	-96.7305	1442
-9.96136	-97.5355	1454
-6.78071	-96.9988	1446
-3.62454	-96.1938	1434
-0.51769	-94.9193	1415
2.55012	-95.2547	1420
5.61579	-95.1876	1419
8.60984	-94.3827	1407
11.6265	-94.1814	1404
14.6407	-94.0473	1402
17.9109	-95.3218	1421
21.1156	-95.9255	1430
24.2746	-96.1938	1434
27.0117	-94.9193	1415
29.0718	-91.7665	1368
31.6778	-90.7603	1353
34.756	-91.1628	1359
38.1099	-92.169	1374
41.678	-93.5106	1394
45.2365	-94.651	1411
48.4235	-94.9193	1415
51.5187	-94.9864	1416
54.3485	-94.5839	1410
57.4779	-94.7181	1412
60.7446	-95.0535	1417
63.4025	-94.4497	1408
65.8327	-93.5777	1395
68.5028	-93.1081	1388
72.276	-94.1143	1403
75.7919	-94.7181	1412
79.6819	-95.7243	1427
82.8246	-95.7914	1428
85.6709	-95.523	1424
87.6897	-94.3827	1407
89.4415	-93.041	1387
91.1735	-91.7665	1368
93.7179	-91.364	1362
97.9396	-92.5715	1380
102.532	-94.0473	1402
106.089	-94.5168	1409
109.213	-94.5839	1410
112.181	-94.5168	1409
114.736	-94.1143	1403
117.937	-94.2485	1405
121.749	-94.8522	1414
124.894	-94.9193	1415
126.506	-93.846	1399
127.123	-92.1019	1373
128.101	-90.6932	1352
130.249	-90.1566	1344
137.414	-93.041	1387
142.437	-94.3827	1407
146.926	-95.3218	1421
150.737	-95.7914	1428
154.147	-95.9926	1431
159.438	-97.3342	1451
164.143	-98.2733	1465
166.739	-97.9379	1460
169.197	-97.5355	1454
171.629	-97.133	1448
173.19	-96.2609	1435
174.573	-95.3218	1421
174.144	-93.4435	1393
175.629	-92.6386	1381
178.744	-92.7056	1382
182.257	-92.974	1386
186.991	-93.846	1399
189.064	-93.3764	1392
191.522	-93.1081	1388
194.943	-93.3094	1391
199.657	-94.1143	1403
202.401	-93.9802	1401
205.576	-94.0473	1402
208.012	-93.7789	1398
213.147	-94.7181	1412
215.893	-94.5839	1410
217.389	-93.9131	1400
225.138	-95.9255	1430
232.698	-97.8038	1458
240.056	-99.5479	1484
244.247	-99.9504	1490
243.15	-98.2063	1464
238.239	-94.9864	1416
232.098	-91.364	1362
230.21	-89.4858	1334
231.696	-88.9491	1326
237.039	-89.8883	1340
240.831	-90.2237	1345
245.551	-90.8945	1355
249.213	-91.1628	1359
258.088	-93.3094	1391
263.723	-94.2485	1405
266.001	-93.9802	1401
266.341	-93.041	1387
264.679	-91.4311	1363
262.128	-89.5528	1335
261.837	-88.4796	1319
262.08	-87.6075	1306
260.035	-85.9976	1282
267.726	-87.6075	1306
281.943	-91.2969	1361
285.722	-91.5653	1365
287.827	-91.2969	1361
290.769	-91.2969	1361
294.359	-91.4982	1364
296.872	-91.364	1362
299.376	-91.2299	1360
299.87	-90.492	1349
300.317	-89.7541	1338
304.569	-90.1566	1344
310.678	-91.0957	1358
315.923	-91.7665	1368
317.948	-91.4982	1364
315.956	-90.0895	1343
315.297	-89.0833	1328
317.929	-89.0162	1327
325.149	-90.2237	1345
329.52	-90.6261	1351
331.702	-90.4249	1348
335.112	-90.5591	1350
339.533	-90.9615	1356
342.969	-91.0957	1358
345.141	-90.8945	1355
348.07	-90.8945	1355
352.553	-91.2969	1361
356.279	-91.4982	1364
358.701	-91.364	1362
361.911	-91.4311	1363
366.463	-91.8336	1369
363.756	-90.4249	1348
366.67	-90.4249	1348
379.18	-92.7727	1383
382.998	-92.974	1386
385.438	-92.8398	1384
381.974	-91.2969	1361
372.755	-88.4125	1318
367.34	-86.4671	1289
371.849	-86.8696	1295
384.485	-89.1504	1329
395.227	-90.9615	1356
404.912	-92.5044	1379
413.217	-93.7119	1397
421.898	-94.9864	1416
427.96	-95.6572	1426
428.625	-95.1206	1418
429.255	-94.5839	1410
433.836	-94.9193	1415
439.056	-95.3889	1422
444.617	-95.9255	1430
443.012	-94.9193	1415
436.298	-92.8398	1384
428.816	-90.6261	1351
436.849	-91.6994	1367
445.917	-92.974	1386
452.152	-93.6448	1396
450.279	-92.6386	1381
453.265	-92.6386	1381
456.58	-92.7056	1382
460.233	-92.8398	1384
458.539	-91.9007	1370
456.784	-90.9615	1356
457.343	-90.492	1349
458.212	-90.0895	1343
454.248	-88.7479	1323
450.543	-87.4733	1304
447.104	-86.2659	1286
449.184	-86.1317	1284
452.664	-86.2659	1286
458.985	-86.9367	1296
464.387	-85.8634	1280
465.694	-85.5951	1276
468.819	-85.6622	1277
485.484	-87.6746	1307
496.902	-89.2174	1330
501.281	-89.4858	1334
510.589	-90.6261	1351
515.03	-90.8945	1355
509.167	-89.3516	1332
502.436	-87.6746	1307
498.303	-86.4671	1289
500.312	-86.333	1287
511.303	-87.7417	1308
525.137	-89.6199	1336
536.324	-91.0286	1357
545.616	-92.1019	1373
547.385	-91.9007	1370
551.954	-92.169	1374
553.309	-91.9007	1370
551.398	-91.0957	1358
546.577	-89.8212	1339
539.213	-88.1441	1314
561.442	-91.2969	1361
563.969	-91.2299	1360
567.326	-91.2969	1361
569.43	-91.1628	1359
572.368	-91.1628	1359
575.306	-91.1628	1359
578.669	-91.2299	1360
579.043	-90.8274	1354
578.961	-90.3578	1347
580.145	-90.0895	1343
591.297	-91.364	1362
595.987	-91.6323	1366
597.186	-91.364	1362
597.045	-90.8945	1355
598.646	-90.6932	1352
597.119	-90.0224	1342
595.996	-89.4187	1333
609.211	-90.9615	1356
612.143	-90.9615	1356
611.899	-90.492	1349
604.788	-89.0162	1327
602.62	-88.2783	1316
610.985	-89.0833	1328
616.63	-89.4858	1334
621.835	-89.8212	1339
625.663	-89.9553	1341
628.093	-89.8883	1340
630.519	-89.8212	1339
640.509	-90.8274	1354
642.961	-90.7603	1353
643.499	-90.4249	1348
646.413	-90.4249	1348
654.144	-91.0957	1358
660.95	-91.6323	1366
665.847	-91.9007	1370
670.762	-92.169	1374
670.299	-91.6994	1367
669.807	-91.2299	1360
670.274	-90.8945	1355
671.215	-90.6261	1351
675.134	-90.7603	1353
681.066	-91.1628	1359
678.97	-90.492	1349
684.414	-90.8274	1354
689.371	-91.0957	1358
685.679	-90.2237	1345
679.884	-89.0833	1328
681.726	-88.9491	1326
694.918	-90.2907	1346
705.605	-91.2969	1361
713.753	-91.9678	1371
719.853	-92.3702	1377
724.93	-92.6386	1381
727.388	-92.5715	1380
729.842	-92.5044	1379
724.32	-91.4311	1363
716.595	-90.0895	1343
715.212	-89.5528	1335
721.863	-90.0224	1342
728.545	-90.492	1349
734.172	-90.8274	1354
733.288	-90.3578	1347
735.654	-90.2907	1346
739.112	-90.3578	1347
732.108	-89.1504	1329
730.557	-88.6137	1321
740.63	-89.4858	1334
748.53	-90.0895	1343
750.874	-90.0224	1342
753.213	-89.9553	1341
755.548	-89.8883	1340
753.917	-89.3516	1332
753.387	-88.9491	1326
756.253	-88.9491	1326
758.547	-88.882	1325
761.412	-88.882	1325
768.314	-89.3516	1332
775.246	-89.8212	1339
778.14	-89.8212	1339
783.368	-90.0895	1343
785.686	-90.0224	1342
791.525	-90.3578	1347
796.206	-90.5591	1350
789.061	-89.4187	1333
780.061	-88.0771	1313
773.359	-87.0038	1297
775.564	-86.9367	1296
782.57	-87.4063	1303
791.414	-88.0771	1313
799.092	-88.6137	1321
804.376	-88.882	1325
799.929	-88.0771	1313
767.918	-84.2535	1256
706.822	-77.2771	1152
-223.327	-78.7471	1213
-222.525	-79.3963	1223
-223.117	-80.5648	1241
-222.388	-81.2789	1252
-226.35	-83.7459	1290
-227.72	-85.3039	1314
-228.131	-86.5374	1333
-225.926	-86.7971	1337
-225.705	-87.8358	1353
-222.451	-87.7059	1351
-219.043	-87.5112	1348
-214.846	-86.9918	1340
-210.367	-86.3426	1330
-207.336	-86.2777	1329
-201.694	-85.1092	1311
-198.557	-84.9793	1309
-200.362	-86.9918	1340
-198.497	-87.4463	1347
-195.731	-87.5112	1348
-192.674	-87.4463	1347
-190.044	-87.5761	1349
-187.544	-87.7709	1352
-185.031	-87.9656	1355
-182.37	-88.0955	1357
-180.23	-88.485	1363
-177.674	-88.6797	1366
-173.57	-88.0955	1357
-170.259	-87.9007	1354
-165.849	-87.1217	1342
-162.584	-86.9269	1339
-159.689	-86.9269	1339
-156.678	-86.862	1338
-154.13	-87.0567	1341
-151.57	-87.2515	1344
-149.328	-87.641	1350
-146.952	-87.9656	1355
-144.235	-88.0955	1357
-139.74	-87.1217	1342
-135.411	-86.2128	1328
-132.341	-86.083	1326
-129.67	-86.2128	1328
-127.945	-86.9918	1340
-125.422	-87.2515	1344
-122.152	-86.9918	1340
-120.768	-88.0955	1357
-117.661	-87.9656	1355
-114.562	-87.8358	1353
-110.895	-87.2515	1344
-107.748	-87.0567	1341
-104.537	-86.7971	1337
-102.483	-87.5112	1348
-101.12	-88.8745	1369
-99.523	-90.108	1388
-98.1915	-91.666	1412
-96.0825	-92.5749	1426
-92.9347	-92.51	1425
-90.1695	-92.8346	1430
-87.9308	-93.7434	1444
-86.0426	-95.1067	1465
-84.4597	-96.9245	1493
-81.8307	-97.6386	1504
-78.4228	-97.4438	1501
-74.2765	-96.2753	1483
-69.6809	-94.3926	1454
-66.2632	-94.0031	1448
-62.7406	-93.4188	1439
-59.0912	-92.5749	1426
-54.7125	-90.4325	1393
-51.5156	-90.108	1388
-48.3754	-89.8483	1384
-45.5803	-90.2378	1390
-43.0043	-91.1467	1404
-40.3678	-92.0555	1418
-38.1969	-94.2628	1452
-35.372	-95.1067	1465
-31.8534	-94.068	1449
-28.2652	-92.5749	1426
-25.006	-91.9257	1416
-22.0225	-92.2503	1421
-19.084	-92.8995	1431
-16.1359	-93.7434	1444
-13.0324	-93.8733	1446
-9.78323	-92.7047	1428
-6.55563	-90.7571	1398
-3.47289	-89.1991	1374
-0.501958	-89.0692	1372
2.53036	-91.4713	1409
5.60788	-91.9906	1417
8.60984	-91.3414	1407
11.5851	-90.8221	1399
14.7347	-91.6011	1411
18.0874	-93.1592	1435
21.4257	-94.1979	1451
24.7485	-94.912	1462
27.0308	-91.9257	1416
29.5393	-90.2378	1390
32.5207	-90.1729	1389
35.5489	-90.2378	1390
38.831	-90.887	1400
42.1265	-91.4713	1409
45.2365	-91.6011	1411
48.2524	-91.5362	1410
51.4096	-91.7309	1413
55.0423	-92.7047	1428
59.3504	-94.6523	1458
62.9737	-95.3664	1469
65.654	-94.6523	1458
68.0035	-93.5487	1441
70.625	-92.8995	1431
74.0275	-93.289	1437
77.6706	-93.9382	1447
81.3012	-94.5225	1456
84.1586	-94.1979	1451
85.4303	-92.1854	1420
86.1316	-89.7184	1382
87.6359	-88.2253	1359
89.2407	-86.9269	1339
91.6536	-86.4725	1332
94.604	-86.5374	1333
98.29	-87.2515	1344
102.4	-88.2902	1360
106.037	-88.8745	1369
109.952	-89.6535	1381
112.692	-89.4588	1378
116.006	-89.7184	1382
118.994	-89.7184	1382
121.364	-89.264	1375
122.98	-88.2902	1360
124.16	-87.0567	1341
126.396	-86.6023	1334
131.218	-87.9007	1354
139.099	-91.1467	1404
143.551	-92.0555	1418
146.513	-91.9906	1417
148.309	-91.2116	1405
151.885	-91.5362	1410
157.131	-92.8346	1430
160.558	-93.0293	1433
162.628	-92.445	1424
164.426	-91.7309	1413
168.429	-92.2503	1421
171.742	-92.3801	1423
175.31	-92.6398	1427
176.144	-91.4713	1409
176.647	-90.1729	1389
178.226	-89.4588	1378
181.468	-89.5886	1380
186.456	-90.5624	1395
190.015	-90.8221	1399
191.246	-89.9781	1386
194.102	-89.9132	1385
198.376	-90.4975	1394
201.39	-90.4975	1394
201.911	-89.3938	1377
204.292	-89.1342	1373
207.411	-89.1991	1374
211.606	-89.7184	1382
218.32	-91.2765	1406
230.176	-94.912	1462
238.604	-97.0543	1495
242.644	-97.3789	1500
244.739	-96.9245	1493
243.15	-95.0418	1464
238.407	-91.9906	1417
234.824	-89.4588	1378
229.52	-86.3426	1330
229.774	-85.3688	1315
231.909	-85.1092	1311
240.115	-87.0567	1341
247.363	-88.6148	1365
251.597	-89.0692	1372
255.862	-89.5237	1379
256.966	-88.8745	1369
259.166	-88.6148	1365
261.732	-88.485	1363
263.125	-87.9656	1355
262.717	-86.862	1338
262.036	-85.6934	1320
261.678	-84.6547	1304
262.469	-84.0055	1294
266.086	-84.2652	1298
280.493	-87.9007	1354
286.35	-88.8096	1368
289.731	-88.9394	1370
292.692	-88.9394	1370
294.359	-88.5499	1364
295.346	-87.9656	1355
296.074	-87.3164	1345
294.535	-86.018	1325
299.42	-86.6023	1334
304.569	-87.2515	1344
312.05	-88.5499	1364
317.77	-89.3289	1376
321.444	-89.5237	1379
320.19	-88.3551	1361
319.571	-87.3813	1346
320.804	-86.9269	1339
322.731	-86.6672	1335
327.081	-87.0567	1341
330.225	-87.1217	1342
335.112	-87.641	1350
340.034	-88.1604	1358
344.232	-88.485	1363
347.179	-88.485	1363
350.896	-88.6797	1366
353.849	-88.6797	1366
356.801	-88.6797	1366
357.911	-88.2253	1359
362.442	-88.6148	1365
366.196	-88.8096	1368
375.089	-90.2378	1390
385.71	-92.0555	1418
387.679	-91.7959	1414
384.104	-90.2378	1390
381.26	-88.8745	1369
378.606	-87.5761	1349
371.341	-85.239	1313
375.008	-84.7846	1306
381.592	-85.6285	1319
393.77	-87.7059	1351
402.857	-89.0692	1372
413.513	-90.7571	1398
420.409	-91.6011	1411
426.46	-92.2503	1421
426.207	-91.5362	1410
429.255	-91.5362	1410
428.733	-88.2902	1360
425.642	-87.0567	1341
433.015	-87.9656	1355
442.057	-89.1991	1374
450.533	-90.3027	1391
454.192	-90.4325	1393
459.829	-90.9519	1401
465.17	-91.4063	1408
464.556	-90.6922	1397
461.551	-89.5237	1379
463.522	-89.3289	1376
471.242	-90.2378	1390
470.835	-89.5886	1380
466.952	-88.2902	1360
460.908	-86.6023	1334
457.186	-85.3688	1315
451.283	-83.7459	1290
499.144	-86.7321	1336
503.911	-87.0567	1341
507.188	-87.1217	1342
513.51	-87.7059	1351
509.167	-86.4725	1332
505.512	-85.3688	1315
504.488	-84.7197	1305
508.864	-84.9793	1309
518.339	-86.083	1326
529.853	-87.5112	1348
537.51	-88.2902	1360
542.834	-88.6797	1366
544.589	-88.485	1363
548.74	-88.6797	1366
553.712	-89.0043	1371
554.646	-88.6797	1366
551.476	-87.7059	1351
555.217	-87.8358	1353
564.742	-88.8745	1369
565.214	-88.485	1363
565.242	-88.0305	1356
566.916	-87.8358	1353
569.841	-87.8358	1353
572.766	-87.8358	1353
577.393	-88.0955	1357
582.037	-88.3551	1361
583.26	-88.0955	1357
587.057	-88.2253	1359
596.507	-89.1991	1374
602.095	-89.5886	1380
604.201	-89.4588	1378
604.536	-89.0692	1372
605.731	-88.8096	1368
607.798	-88.6797	1366
607.621	-88.2253	1359
610.559	-88.2253	1359
613.045	-88.1604	1358
608.724	-87.1217	1342
604.788	-86.1479	1327
605.367	-85.8233	1322
610.985	-86.2128	1328
619.865	-87.0567	1341
626.479	-87.5761	1349
629.862	-87.641	1350
627.156	-86.862	1338
630.048	-86.862	1338
637.198	-87.4463	1347
640.11	-87.4463	1347
645.409	-87.7709	1352
652.167	-88.2902	1360
660.888	-89.0692	1372
672.563	-90.2378	1390
675.568	-90.2378	1390
672.226	-89.3938	1377
670.79	-88.8096	1368
663.897	-87.5112	1348
663.348	-87.0567	1341
666.247	-87.0567	1341
671.142	-87.3164	1345
673.047	-87.1866	1343
671.42	-86.6023	1334
677.337	-86.9918	1340
686.833	-87.8358	1353
686.189	-87.3813	1346
681.42	-86.4076	1331
684.297	-86.4076	1331
695.951	-87.5112	1348
708.715	-88.7447	1367
715.835	-89.264	1375
717.762	-89.1342	1373
721.255	-89.1991	1374
724.752	-89.264	1375
725.608	-89.0043	1371
713.16	-87.1217	1342
705.39	-85.8233	1322
707.712	-85.7584	1321
712.719	-86.018	1325
722.064	-86.7971	1337
727.665	-87.1217	1342
732.2	-87.3164	1345
731.281	-86.862	1338
731.979	-86.6023	1334
726.049	-85.5636	1318
724.473	-85.0443	1310
737.299	-86.2128	1328
752.431	-87.641	1350
759.266	-88.0955	1357
761.076	-87.9656	1355
756.112	-87.0567	1341
754.483	-86.5374	1333
754.523	-86.2128	1328
760.816	-86.6023	1334
763.7	-86.6023	1334
766.583	-86.6023	1334
768.314	-86.4725	1332
775.825	-86.9918	1340
780.465	-87.1866	1343
783.368	-87.1866	1343
783.344	-86.862	1338
787.999	-87.0567	1341
791.488	-87.1217	1342
789.653	-86.6023	1334
779.467	-85.1741	1312
774.551	-84.3301	1299
777.958	-84.3951	1300
782.57	-84.5898	1303
789.003	-84.9793	1309
796.672	-85.4987	1317
803.162	-85.8882	1323
790.791	-84.2652	1298
764.249	-81.1491	1250
705.595	-74.6572	1150
-207.79	-75.2466	1199
-208.621	-76.5017	1219
-208.859	-77.5686	1236
-215.862	-81.2085	1294
-213.888	-81.5223	1299
-211.73	-81.7734	1303
-207.471	-81.2085	1294
-206.097	-81.7734	1303
-209.053	-84.0954	1340
-207.848	-84.7857	1351
-204.169	-84.472	1346
-198.568	-83.3423	1328
-197.466	-84.0954	1340
-194.424	-84.0326	1339
-191.386	-83.9699	1338
-188.071	-83.7816	1335
-186.434	-84.3464	1344
-184.621	-84.8485	1352
-181.967	-84.974	1354
-179.172	-85.0368	1355
-176.633	-85.225	1358
-173.058	-84.9113	1353
-170.385	-85.0368	1355
-167.085	-84.8485	1352
-162.948	-84.2209	1342
-159.332	-83.8444	1336
-156.326	-83.7816	1335
-153.555	-83.8444	1336
-150.78	-83.9071	1337
-148.222	-84.0954	1340
-146.084	-84.5347	1347
-142.747	-84.2837	1343
-139.011	-83.7816	1335
-134.902	-83.0285	1323
-131.243	-82.5265	1315
-128.791	-82.7775	1319
-127.468	-83.7816	1335
-124.862	-83.9699	1338
-122.607	-84.4092	1345
-118.454	-83.5306	1331
-116.098	-83.9071	1337
-111.429	-82.5892	1316
-108.915	-82.8403	1320
-106.382	-83.0913	1324
-104.068	-83.5306	1331
-102.179	-84.3464	1344
-100.751	-85.6016	1364
-99.0928	-86.7312	1382
-97.2875	-87.7981	1399
-95.2066	-88.6767	1413
-92.5434	-89.0533	1419
-89.4759	-89.0533	1419
-86.8956	-89.5553	1427
-83.4584	-89.1788	1421
-80.6129	-89.4298	1425
-78.1853	-90.1829	1437
-75.8104	-91.0615	1451
-72.5736	-90.936	1449
-69.1058	-90.4967	1442
-65.6225	-89.9946	1434
-62.3918	-89.8064	1431
-58.8426	-89.116	1420
-54.7125	-87.4216	1393
-51.5899	-87.2333	1390
-49.2142	-88.3629	1408
-47.4494	-90.8105	1447
-44.7502	-91.6891	1461
-41.5635	-91.6263	1460
-38.4337	-91.6891	1461
-35.2271	-91.5636	1459
-31.6555	-90.3712	1440
-28.1462	-89.116	1420
-25.006	-88.865	1416
-22.2859	-90.2457	1438
-19.4308	-91.4381	1457
-16.3258	-91.6891	1461
-13.0775	-91.0615	1451
-9.80379	-89.8064	1431
-6.51342	-87.1705	1389
-3.46025	-85.9154	1369
-0.49647	-85.1623	1357
2.44236	-85.3506	1360
5.40604	-85.7271	1366
8.42626	-86.4174	1377
11.4526	-86.794	1383
14.6094	-87.7981	1399
17.9991	-89.6181	1428
21.5586	-91.6263	1460
25.1209	-93.1325	1484
27.6608	-90.936	1449
30.0281	-88.6767	1413
32.6377	-87.4843	1394
35.2931	-86.6057	1380
38.1931	-86.4174	1377
41.1399	-86.3547	1376
44.2426	-86.6057	1380
47.4311	-86.9823	1386
50.9002	-87.7981	1399
54.8881	-89.3671	1424
59.1876	-91.2498	1454
62.888	-92.0656	1467
65.699	-91.5636	1459
68.2866	-90.8105	1447
70.5756	-89.7436	1430
73.1002	-89.0533	1419
76.275	-89.1788	1421
79.9052	-89.8064	1431
84.3326	-91.2498	1454
87.0546	-90.8105	1447
88.9985	-89.6181	1428
90.9247	-88.4884	1410
92.3732	-86.9823	1386
94.75	-86.4174	1377
97.5848	-86.2919	1375
101.435	-87.045	1387
105.638	-88.0491	1403
109.29	-88.5512	1411
112.261	-88.4884	1410
113.837	-87.3588	1392
115.167	-86.1037	1372
117.186	-85.4133	1361
119.598	-85.0368	1355
122.527	-85.0368	1355
125.364	-84.974	1354
128.954	-85.4133	1361
132.962	-86.1037	1372
137.018	-86.794	1383
141.02	-87.4216	1393
143.618	-87.1705	1389
147.043	-87.4216	1393
153.07	-89.1788	1421
159.328	-90.9988	1450
162.799	-91.187	1453
162.628	-89.3671	1424
163.612	-88.2374	1406
165.466	-87.6098	1396
169.57	-88.1747	1405
173.467	-88.614	1412
176.269	-88.4884	1410
178.3	-87.9864	1402
179.39	-87.045	1387
179.759	-85.7899	1367
181.912	-85.4133	1361
187.027	-86.4174	1377
192.764	-87.6726	1397
199.007	-89.116	1420
203.499	-89.7436	1430
204.568	-88.865	1416
205.43	-87.9236	1401
206.822	-87.2333	1390
211.789	-88.0491	1403
218.65	-89.6181	1428
227.637	-92.0029	1466
233.64	-93.1325	1484
238.923	-93.9484	1497
242.482	-94.0739	1499
243.264	-93.1325	1484
242.32	-91.5636	1459
239.417	-89.3043	1423
235.336	-86.6685	1381
233.316	-84.8485	1352
232.045	-83.3423	1328
235.978	-83.7189	1334
242.801	-85.0995	1356
248.088	-85.9154	1369
251.047	-85.9154	1369
252.151	-85.2878	1359
253.775	-84.8485	1352
257.267	-85.0368	1355
258.852	-84.5975	1348
260.018	-84.0326	1339
263.109	-84.0954	1340
262.234	-82.903	1321
261.678	-81.8361	1304
261.658	-80.9575	1290
268.546	-82.2127	1310
278.629	-84.4092	1345
285.095	-85.4761	1362
288.462	-85.6016	1364
291.624	-85.6644	1365
294.359	-85.6016	1364
294.91	-84.9113	1353
294.313	-83.9071	1337
295.202	-83.3423	1328
298.746	-83.5306	1331
305.023	-84.472	1346
312.279	-85.6644	1365
317.77	-86.3547	1376
321.677	-86.6057	1380
322.072	-85.9154	1369
321.708	-85.0368	1355
323.199	-84.6602	1349
326.116	-84.6602	1349
330.251	-84.974	1354
334.163	-85.225	1358
337.843	-85.4133	1361
340.284	-85.2878	1359
341.454	-84.8485	1352
345.905	-85.225	1358
352.18	-86.0409	1371
354.108	-85.7899	1367
355.234	-85.3506	1360
360.281	-85.8526	1368
363.769	-85.9781	1370
373.958	-87.6726	1397
389.931	-90.685	1445
391.695	-90.3712	1440
387.131	-88.614	1412
382.446	-86.8568	1384
377.918	-85.1623	1357
373.835	-83.5933	1332
412.034	-87.4216	1393
418.919	-88.2374	1406
417.457	-87.2961	1391
439.483	-85.7271	1366
449.561	-87.1078	1388
453.54	-87.2961	1391
455.234	-87.045	1387
504.663	-84.2837	1343
513.991	-85.3506	1360
519.211	-85.7271	1366
521.017	-85.5388	1363
516.275	-84.2837	1343
512.22	-83.154	1325
517.417	-83.5306	1331
529.285	-84.974	1354
536.929	-85.7271	1366
539.881	-85.7271	1366
548.398	-86.6057	1380
549.783	-86.3547	1376
557.578	-87.1078	1388
559.367	-86.9195	1385
560.33	-86.6057	1380
562.497	-86.4802	1378
565.886	-86.543	1379
566.805	-86.2292	1374
568.531	-86.0409	1371
570.244	-85.8526	1368
569.011	-85.225	1358
569.42	-84.8485	1352
573.612	-85.0368	1355
577.393	-85.1623	1357
585.458	-85.9154	1369
588.417	-85.9154	1369
593.969	-86.2919	1375
600.414	-86.794	1383
609.076	-87.6098	1396
614.724	-87.9864	1402
619.077	-88.1747	1405
621.671	-88.1119	1404
623.371	-87.9236	1401
617.458	-86.6685	1381
613.704	-85.7271	1366
613.045	-85.225	1358
612.352	-84.723	1350
615.271	-84.723	1350
617.273	-84.5975	1348
625.708	-85.3506	1360
630.497	-85.6016	1364
632.517	-85.4761	1362
634.061	-85.2878	1359
633.718	-84.8485	1352
633.815	-84.472	1346
633.414	-84.0326	1339
639.159	-84.4092	1345
646.841	-85.0368	1355
664.156	-86.9195	1385
672.93	-87.6726	1397
675.466	-87.6098	1396
671.68	-86.7312	1382
670.273	-86.1664	1373
665.396	-85.1623	1357
663.404	-84.5347	1347
660.38	-83.7816	1335
661.776	-83.5933	1332
663.657	-83.4678	1330
666.532	-83.4678	1330
664.374	-82.8403	1320
666.722	-82.7775	1319
675.157	-83.4678	1330
678.542	-83.5306	1331
677.836	-83.0913	1324
683.269	-83.4051	1329
692.337	-84.1582	1341
703.012	-85.0995	1356
705.944	-85.0995	1356
699.988	-84.0326	1339
705.507	-84.3464	1344
715.792	-85.225	1358
718.198	-85.1623	1357
711.566	-84.0326	1339
703.789	-82.7775	1319
704.497	-82.5265	1315
708.416	-82.652	1317
711.803	-82.7147	1318
720.074	-83.3423	1328
725.123	-83.5933	1332
726.909	-83.4678	1330
722.651	-82.652	1317
719.989	-82.0244	1307
721.155	-81.8361	1304
741.185	-83.7816	1335
761.349	-85.7271	1366
762.623	-85.5388	1363
756.583	-84.5347	1347
751.601	-83.6561	1333
753.917	-83.5933	1332
757.932	-83.7189	1334
764.808	-84.1582	1341
767.707	-84.1582	1341
770.606	-84.1582	1341
773.505	-84.1582	1341
775.246	-84.0326	1339
783.952	-84.6602	1349
785.118	-84.472	1346
782.173	-83.8444	1336
782.123	-83.5306	1331
787.949	-83.8444	1336
788.469	-83.5933	1332
780.655	-82.4637	1314
778.129	-81.8989	1305
780.95	-81.8989	1305
785.573	-82.0872	1308
790.811	-82.3382	1312
797.277	-82.7147	1318
801.947	-82.903	1321
790.791	-81.4596	1298
768.529	-78.8865	1257
708.05	-72.4225	1154
-198.492	-75.0182	1238
-196.607	-75.3212	1243
-207.492	-80.593	1330
-207.694	-81.8049	1350
-208.265	-83.1987	1373
-200.213	-81.1384	1339
-196.139	-80.6536	1331
-193.698	-80.8354	1334
-190.671	-80.7748	1333
-187.789	-80.7748	1333
-186.295	-81.3808	1343
-184.211	-81.7444	1349
-181.564	-81.8655	1351
-178.908	-81.9867	1353
-176.894	-82.4109	1360
-174.593	-82.7139	1365
-171.265	-82.5321	1362
-167.332	-82.0473	1354
-163.312	-81.502	1345
-159.809	-81.199	1340
-157.146	-81.3202	1342
-154.36	-81.3808	1343
-151.682	-81.502	1345
-148.996	-81.6232	1347
-145.976	-81.5626	1346
-142.96	-81.502	1345
-138.803	-80.7748	1333
-134.494	-79.9265	1319
-131.842	-80.0477	1321
-129.67	-80.4718	1328
-127.372	-80.8354	1334
-125.515	-81.502	1345
-122.243	-81.2596	1341
-117.03	-79.6841	1315
-112.451	-78.4722	1295
-109.313	-78.2298	1291
-104.624	-76.8361	1268
-102.445	-77.2602	1275
-101.175	-78.4116	1294
-99.974	-79.6841	1315
-99.2734	-81.4414	1344
-97.2285	-82.1685	1356
-95.1317	-82.8957	1368
-93.1178	-83.744	1382
-92.0216	-85.5013	1411
-90.3587	-86.8344	1433
-87.0173	-86.5921	1429
-82.6362	-85.2589	1407
-79.0855	-84.7136	1398
-76.9884	-85.7437	1415
-74.3475	-86.2285	1423
-70.9709	-85.8649	1417
-67.764	-85.6831	1414
-64.5242	-85.4407	1410
-61.171	-85.0165	1403
-57.6409	-84.2894	1391
-54.6732	-84.35	1392
-52.4435	-85.6225	1413
-50.2978	-87.198	1439
-47.8101	-88.3493	1458
-44.934	-88.8947	1467
-41.7343	-88.8341	1466
-38.1443	-87.8646	1450
-34.5028	-86.5921	1429
-31.2818	-86.2285	1423
-28.3246	-86.5921	1429
-25.5004	-87.501	1444
-22.7509	-88.9553	1468
-19.7508	-89.7431	1481
-16.4376	-89.1371	1471
-13.0594	-87.804	1449
-9.80379	-86.7132	1431
-6.80885	-87.9858	1452
-3.6574	-87.6828	1447
-0.520983	-86.2891	1424
2.49983	-84.35	1392
5.42979	-83.1381	1372
8.43238	-83.5016	1378
11.5851	-84.7742	1399
14.9331	-86.6526	1430
18.5285	-89.0765	1470
22.2673	-91.3792	1508
25.341	-90.7126	1497
27.5844	-87.5616	1445
29.6881	-84.653	1397
32.3802	-83.8046	1383
34.9351	-82.7745	1366
37.4997	-81.9261	1352
40.2728	-81.6232	1347
43.4732	-82.1685	1356
46.8836	-83.0169	1370
50.027	-83.3199	1375
53.2692	-83.744	1382
56.7859	-84.5318	1395
60.5302	-85.5619	1412
64.1229	-86.2891	1424
66.9653	-85.9861	1419
69.4405	-85.2589	1407
71.6063	-84.2288	1390
74.128	-83.6834	1381
77.5042	-84.1076	1388
82.0126	-85.6831	1414
86.2725	-86.895	1434
89.3101	-86.8344	1433
91.3761	-85.8649	1417
93.2396	-84.7742	1399
95.0253	-83.6834	1381
97.8686	-83.5622	1379
101.215	-83.8652	1384
105.788	-85.1377	1405
109.678	-85.8043	1416
111.942	-85.1983	1406
113.51	-84.1076	1388
113.656	-82.0473	1354
115.464	-81.2596	1341
116.862	-80.2294	1324
121.081	-81.1384	1339
126.197	-82.5927	1363
132.365	-84.653	1397
142.539	-85.3195	1408
144.858	-84.8954	1401
147.887	-84.8954	1401
152.962	-86.0467	1420
157.9	-87.0768	1437
162.239	-87.7434	1448
163.884	-86.9556	1435
163.263	-85.0165	1403
164.162	-83.9258	1385
166.915	-83.8046	1383
170.15	-83.9258	1385
173.644	-84.1682	1389
179.317	-85.4407	1410
195.385	-85.8043	1416
200.268	-86.5921	1429
202.646	-86.2891	1424
202.979	-85.1377	1405
204.55	-84.5318	1395
209.649	-85.3801	1409
218.129	-87.5616	1445
226.458	-89.6219	1479
232.451	-90.7126	1497
234.742	-90.349	1491
237.167	-90.046	1486
239.732	-89.8037	1482
243.264	-89.9249	1484
243.482	-88.8341	1466
240.763	-86.7132	1431
238.403	-84.7742	1399
236.078	-82.8957	1368
236.589	-82.0473	1354
239.162	-81.9261	1352
244.412	-82.7139	1365
248.813	-83.1987	1373
250.314	-82.7139	1365
251.223	-82.0473	1354
252.836	-81.6232	1347
254.609	-81.2596	1341
255.396	-80.593	1330
257.882	-80.4718	1328
259.575	-80.1083	1322
262.83	-80.2294	1324
263.685	-79.6235	1314
261.86	-78.2298	1291
267.931	-79.1993	1307
277.593	-81.199	1340
280.071	-81.0778	1338
284.867	-81.6232	1347
290.342	-82.3503	1359
294.79	-82.7745	1366
295.128	-82.0473	1354
295.853	-81.4414	1344
295.647	-80.593	1330
298.522	-80.593	1330
303.89	-81.2596	1341
309.305	-81.9261	1352
314.999	-82.6533	1364
318.414	-82.7745	1366
322.072	-82.9563	1369
323.132	-82.4715	1361
324.877	-82.1685	1356
328.05	-82.2291	1357
332.934	-82.7139	1365
337.115	-83.0169	1370
340.077	-83.0169	1370
342.287	-82.8351	1367
343.98	-82.5321	1362
346.16	-82.3503	1359
348.841	-82.2897	1358
352.035	-82.3503	1359
354.189	-82.1685	1356
356.857	-82.1079	1355
359.521	-82.0473	1354
367.266	-83.1381	1372
383.994	-86.2285	1423
379.454	-84.5318	1395
520.793	-83.5016	1378
530.994	-84.653	1397
531.338	-84.2288	1390
523.964	-82.5927	1363
517.632	-81.1384	1339
520.915	-81.199	1340
538.3	-82.5321	1362
545.616	-83.1987	1373
553.778	-83.9864	1386
559.586	-84.4106	1393
566.636	-85.0165	1403
568.857	-84.8954	1401
571.069	-84.7742	1399
574.094	-84.7742	1399
564.742	-82.9563	1369
571.434	-83.5016	1378
575.246	-83.6228	1380
577.81	-83.5622	1379
574.895	-82.7139	1365
576.576	-82.5321	1362
579.946	-82.5927	1363
586.313	-83.0775	1371
592.286	-83.5016	1378
596.128	-83.6228	1380
603.453	-84.2288	1390
612.13	-85.0165	1403
616.916	-85.2589	1407
626.567	-86.1679	1422
630.97	-86.3497	1425
627.821	-85.5013	1411
629.083	-85.2589	1407
616.849	-83.1987	1373
616.205	-82.7139	1365
619.61	-82.7745	1366
626.209	-83.2593	1374
634.216	-83.9258	1385
637.67	-83.9864	1386
633.733	-83.0775	1371
626.015	-81.6838	1348
624.73	-81.1384	1339
625.281	-80.8354	1334
618.276	-79.5629	1313
621.587	-79.6235	1314
631.556	-80.5324	1329
642.544	-81.5626	1346
662.238	-83.6834	1381
668.113	-84.047	1387
667.241	-83.5622	1379
657.099	-81.9261	1352
647.329	-80.3506	1326
646.987	-78.2298	1291
640.215	-77.0784	1272
651.052	-78.048	1288
659.421	-78.7145	1299
667.327	-79.3205	1309
673.74	-79.7447	1316
676.071	-79.6841	1315
682.011	-80.0477	1321
685.904	-80.1689	1323
688.764	-80.1689	1323
684.828	-79.3811	1310
697.108	-80.4718	1328
706.831	-81.2596	1341
715.023	-81.8655	1351
715.286	-81.5626	1346
706.99	-80.29	1325
703.962	-79.6235	1314
701.961	-79.0781	1305
705.322	-79.1387	1306
709.23	-79.2599	1308
717.501	-79.8659	1318
725.816	-80.4718	1328
728.687	-80.4718	1328
719.438	-79.1387	1306
724.473	-79.3811	1310
745.072	-81.3202	1342
759.12	-82.5321	1362
758.147	-82.1079	1355
752.09	-81.1384	1339
749.909	-80.593	1330
755.615	-80.896	1335
762.478	-81.3202	1342
769.371	-81.7444	1349
769.997	-81.502	1345
772.905	-81.502	1345
771.198	-81.0172	1337
772.351	-80.8354	1334
781.627	-81.502	1345
785.701	-81.6232	1347
785.1	-81.2596	1341
786.236	-81.0778	1338
789.129	-81.0778	1338
787.878	-80.6536	1331
780.655	-79.6235	1314
776.34	-78.8963	1302
779.155	-78.8963	1302
786.774	-79.3811	1310
793.825	-79.8053	1317
803.326	-80.4718	1328
798.305	-79.6841	1315
790.791	-78.6539	1298
772.198	-76.5331	1263
720.321	-71.14	1174
-193.764	-72.576	1242
-201.848	-76.6664	1312
-207.961	-80.114	1371
-200.811	-78.4779	1343
-196.139	-77.7767	1331
-193.407	-77.8351	1332
-191.529	-78.2441	1339
-189.762	-78.7116	1347
-186.85	-78.7116	1347
-184.484	-78.9454	1351
-181.429	-78.8869	1350
-178.511	-78.8869	1350
-176.763	-79.4128	1359
-174.593	-79.7634	1365
-171.391	-79.6466	1363
-167.332	-79.1207	1354
-163.191	-78.5363	1344
-159.928	-78.361	1341
-157.38	-78.5363	1344
-155.394	-79.0038	1352
-152.585	-79.0622	1353
-149.217	-78.8285	1349
-145.759	-78.5363	1344
-141.897	-78.0104	1335
-138.178	-77.5429	1327
-135.615	-77.7182	1330
-133.439	-78.1273	1337
-130.939	-78.361	1341
-128.422	-78.5947	1345
-125.515	-78.5947	1345
-121.605	-77.952	1334
-115.962	-76.1405	1303
-111.148	-74.7965	1280
-107.619	-74.2706	1271
-104.376	-73.92	1265
-101.722	-73.9784	1266
-100.08	-74.7965	1280
-98.6056	-75.7899	1297
-96.6882	-76.4911	1309
-94.0019	-76.608	1311
-92.3501	-77.6013	1328
-91.9724	-79.7634	1365
-91.6955	-82.1593	1406
-81.1678	-80.7568	1382
-76.5964	-79.1207	1354
-73.5606	-79.0038	1352
-71.2649	-79.705	1364
-69.0676	-80.5815	1379
-66.8055	-81.458	1394
-64.2039	-81.984	1403
-60.953	-81.6918	1398
-57.2679	-80.7568	1382
-53.652	-79.8219	1366
-50.8476	-80.0556	1370
-48.2705	-80.6984	1381
-46.4001	-82.6852	1415
-44.1683	-84.2629	1442
-41.1934	-84.5551	1447
-37.1447	-82.5099	1412
-33.9716	-82.2177	1407
-31.062	-82.5683	1413
-28.285	-83.3864	1427
-25.3062	-83.737	1433
-22.2239	-83.7954	1434
-19.1374	-83.8539	1435
-15.8565	-82.9189	1419
-12.8071	-83.0358	1421
-9.80379	-83.6201	1431
-6.75258	-84.146	1440
-3.67762	-85.0226	1455
-0.525007	-83.8539	1435
2.52497	-82.1593	1406
5.50894	-81.3412	1392
8.45685	-80.7568	1382
11.5768	-81.6918	1398
14.8809	-83.2695	1425
18.5159	-85.8407	1469
21.8539	-86.4834	1480
24.7824	-85.5485	1464
202.37	-84.3798	1444
201.365	-82.6852	1415
201.968	-81.6918	1398
204.403	-81.458	1394
210.839	-82.802	1417
219.336	-84.9057	1453
227.683	-86.8925	1487
231.364	-87.0678	1490
232.223	-86.1913	1475
233.177	-85.3732	1461
238.115	-86.016	1472
242.608	-86.4834	1480
242.984	-85.49	1463
243.455	-84.5551	1447
241.811	-82.9189	1419
240.564	-81.458	1394
242.355	-81.049	1387
244.999	-80.9321	1385
248.53	-81.1074	1388
251.168	-80.9906	1386
252.147	-80.3478	1375
251.78	-79.296	1357
252.461	-78.5947	1345
251.191	-77.3092	1323
252.131	-76.7248	1313
253.416	-76.2573	1305
258.004	-76.7833	1314
262.036	-77.1339	1320
266.093	-77.4845	1326
266.728	-76.8417	1315
266.496	-75.9652	1300
276.143	-77.8935	1333
278.606	-77.7767	1331
285.501	-78.8869	1350
290.556	-79.4713	1360
294.575	-79.7634	1365
296.436	-79.4713	1360
297.835	-79.0622	1353
297.203	-78.1273	1337
298.522	-77.7182	1330
302.303	-77.952	1334
306.789	-78.361	1341
311.997	-78.9454	1351
316.316	-79.296	1357
320.661	-79.6466	1363
324.32	-79.8219	1366
327.033	-79.7634	1365
331.192	-80.0556	1370
335.373	-80.3478	1375
338.346	-80.3478	1375
339.581	-79.9387	1368
341.787	-79.7634	1365
345.242	-79.8803	1367
347.179	-79.6466	1363
351.153	-79.8803	1367
357.216	-80.5815	1379
360.197	-80.5815	1379
360.281	-79.9387	1368
356.866	-78.5363	1344
357.362	-78.0104	1335
369.962	-80.114	1371
537.456	-82.6267	1414
537.454	-82.1593	1406
527.808	-80.2309	1373
516.859	-78.1273	1337
535.929	-79.2375	1356
541.642	-79.6466	1363
548.984	-80.2893	1374
554.766	-80.6984	1381
564.213	-81.6333	1397
567.233	-81.6333	1397
567.804	-81.2827	1391
569.169	-81.049	1387
561.442	-79.5297	1361
574.751	-80.9906	1386
583.166	-81.7502	1399
585.772	-81.6918	1398
583.318	-80.9321	1385
582.502	-80.4062	1376
588.881	-80.8737	1384
590.59	-80.6984	1381
596.154	-81.049	1387
600.016	-81.1659	1389
603.453	-81.2243	1390
615.184	-82.393	1410
620.424	-82.6852	1415
628.33	-83.328	1426
629.641	-83.0942	1422
629.156	-82.6267	1414
624.164	-81.5749	1396
620.443	-80.6984	1381
617.108	-79.8803	1367
625.053	-80.5231	1378
635.324	-81.458	1394
642.459	-81.984	1403
641.351	-81.458	1394
630.497	-79.705	1364
618.12	-77.7767	1331
594.403	-74.4459	1274
667.555	-75.5561	1293
670.35	-75.5561	1293
666.898	-74.8549	1281
674.372	-75.3808	1290
690.809	-76.9001	1316
703.669	-78.0104	1335
711.847	-78.5947	1345
717.943	-78.9454	1351
719.263	-78.77	1348
715.748	-78.0688	1336
712.719	-77.426	1325
708.022	-76.608	1311
710.856	-76.608	1311
714.235	-76.6664	1312
719.804	-76.9586	1317
725.394	-77.2507	1322
720.54	-76.4327	1308
720.602	-76.1405	1303
743.406	-78.2441	1339
754.103	-79.0622	1353
753.671	-78.7116	1347
749.843	-78.0104	1335
753.856	-78.1273	1337
759.577	-78.4194	1342
767.023	-78.8869	1350
771.082	-79.0038	1352
767.707	-78.361	1341
770.606	-78.361	1341
767.737	-77.7767	1331
769.456	-77.6598	1329
781.046	-78.5363	1344
785.701	-78.7116	1347
792.126	-79.0622	1353
796.814	-79.2375	1356
796.796	-78.9454	1351
790.837	-78.0688	1336
781.249	-76.8417	1315
779.322	-76.3742	1307
779.753	-76.1405	1303
789.176	-76.7833	1314
798.044	-77.3676	1324
804.536	-77.7182	1330
798.912	-76.9001	1316
792.618	-76.0236	1301
778.312	-74.3874	1273
736.273	-70.1217	1200
-194.156	-71.0168	1262
-201.591	-74.7871	1329
-201.708	-75.9126	1349
-196.434	-75.0122	1333
-194.133	-75.2373	1337
-191.815	-75.4624	1341
-190.889	-76.2502	1355
-187.96	-76.2502	1355
-183.938	-75.8001	1347
-181.295	-75.9126	1349
-178.908	-76.1377	1353
-177.154	-76.6442	1362
-174.977	-76.9818	1368
-171.265	-76.6442	1362
-167.085	-76.0814	1352
-162.705	-75.4061	1340
-159.451	-75.2373	1337
-157.146	-75.5187	1342
-155.165	-75.9689	1350
-152.021	-75.8563	1348
-148.664	-75.6312	1344
-144.241	-74.8434	1330
-140.94	-74.6183	1326
-138.803	-75.0122	1333
-137.247	-75.7438	1346
-135.036	-76.1377	1353
-132.599	-76.4191	1358
-130.046	-76.6442	1362
-126.168	-76.0814	1352
-121.24	-74.8434	1330
-116.229	-73.4929	1306
-111.843	-72.4799	1288
-108.381	-72.0298	1280
-105.202	-71.7484	1275
-102.204	-71.5796	1272
-100.706	-72.4799	1288
-99.3658	-73.5491	1307
-96.6143	-73.6054	1308
-93.5717	-73.4366	1305
-50.031	-75.8563	1348
-21.4645	-77.9384	1385
-18.1905	-76.7567	1364
-15.1078	-76.0814	1352
202.503	-80.0768	1423
