42.6616	68.301	620
44.0728	68.4111	621
45.3421	68.301	620
46.5318	68.0807	618
47.6354	67.7502	615
48.4871	67.0892	609
50.0489	67.4197	612
51.7077	67.8603	616
53.7281	68.7416	624
55.1653	68.8518	625
55.9738	68.1908	619
56.9415	67.7502	615
58.1763	67.64	614
59.6005	67.7502	615
60.7318	67.5298	613
61.4495	66.8689	607
63.4854	67.64	614
64.7072	67.5298	613
64.9551	66.4282	603
66.5882	66.7587	606
68.5705	67.4197	612
71.4923	68.962	626
72.962	69.0721	627
73.2506	68.0807	618
73.9831	67.5298	613
74.9397	67.1993	610
76.5083	67.4197	612
77.7041	67.3095	611
79.4129	67.64	614
81.5292	68.301	620
82.8695	68.301	620
83.259	67.5298	613
84.5841	67.5298	613
85.2085	66.979	608
85.669	66.318	602
85.8146	65.4367	594
86.6588	65.1063	591
88.5315	65.5469	595
91.1763	66.5384	604
94.0132	67.64	614
95.8063	67.9705	617
96.6677	67.64	614
95.7606	66.0977	600
97.5429	66.4282	603
99.0104	66.5384	604
101.146	67.0892	609
102.631	67.1993	610
103.439	66.8689	607
104.233	66.5384	604
105.713	66.6485	605
107.729	67.0892	609
109.583	67.4197	612
110.906	67.4197	612
111.678	67.0892	609
112.253	66.6485	605
113.936	66.8689	607
115.628	67.0892	609
117.136	67.1993	610
118.455	67.1993	610
118.988	66.7587	606
118.909	65.9876	599
119.601	65.6571	596
120.89	65.6571	596
122.793	65.9876	599
125.124	66.5384	604
127.476	67.0892	609
128.793	67.0892	609
129.468	66.7587	606
130.562	66.6485	605
131.216	66.318	602
134.279	67.1993	610
136.042	67.4197	612
137.14	67.3095	611
137.555	66.8689	607
137.952	66.4282	603
139.024	66.318	602
140.559	66.4282	603
141.627	66.318	602
143.166	66.4282	603
145.428	66.8689	607
147.465	67.1993	610
149.272	67.4197	612
149.118	66.7587	606
148.939	66.0977	600
149.735	65.8774	598
151.785	66.2079	601
153.849	66.5384	604
155.154	66.5384	604
156.46	66.5384	604
155.676	65.6571	596
157.228	65.7672	597
158.784	65.8774	598
160.612	66.0977	600
160.83	65.6571	596
162.934	65.9876	599
162.584	65.3266	593
164.695	65.6571	596
165.705	65.5469	595
166.71	65.4367	594
167.994	65.4367	594
169.563	65.5469	595
170.562	65.4367	594
171.847	65.4367	594
172.256	65.1063	591
172.066	64.5554	586
172.741	64.3351	584
175.195	64.7758	588
179.167	65.7672	597
184.085	67.0892	609
188.446	68.1908	619
189.477	68.0807	618
188.343	67.1993	610
186.864	66.2079	601
185.032	65.1063	591
185.049	64.6656	587
186.317	64.6656	587
188.226	64.8859	589
191.751	65.6571	596
194.011	65.9876	599
196.61	66.4282	603
199.883	67.0892	609
201.86	67.3095	611
199.855	66.2079	601
197.808	65.1063	591
198.075	64.7758	588
201.38	65.4367	594
203.005	65.5469	595
204.978	65.7672	597
207.305	66.0977	600
210.34	66.6485	605
213.048	67.0892	609
213.66	66.8689	607
212.847	66.2079	601
213.434	65.9876	599
214.729	65.9876	599
214.942	65.6571	596
214.416	65.1063	591
213.504	64.4453	585
218.073	65.4367	594
220.095	65.6571	596
221.012	65.5469	595
220.43	64.9961	590
222.457	65.2164	592
223.359	65.1063	591
226.157	65.5469	595
229.355	66.0977	600
231.42	66.318	602
232.722	66.318	602
236.744	67.0892	609
237.279	66.8689	607
236.233	66.2079	601
236.346	65.8774	598
235.255	65.2164	592
235.336	64.8859	589
237.011	64.9961	590
236.671	64.5554	586
237.125	64.3351	584
240.021	64.7758	588
241.702	64.8859	589
243.388	64.9961	590
246.322	65.4367	594
245.939	64.9961	590
245.538	64.5554	586
245.962	64.3351	584
246.802	64.225	583
251.466	65.1063	591
257.02	66.2079	601
261.758	67.0892	609
254.435	64.8859	589
258.313	65.5469	595
260.035	65.6571	596
257.816	64.7758	588
256.003	64.0046	581
255.93	63.6741	578
257.18	63.6741	578
262.006	64.5554	586
267.765	65.6571	596
270.408	65.9876	599
271.703	65.9876	599
272.998	65.9876	599
274.293	65.9876	599
273.287	65.4367	594
269.024	64.1148	582
267.96	63.564	577
270.141	63.7843	579
276.08	64.8859	589
280.649	65.6571	596
285.722	66.5384	604
286.552	66.4282	603
286.901	66.2079	601
287.721	66.0977	600
285.646	65.3266	593
284.025	64.6656	587
285.294	64.6656	587
286.074	64.5554	586
287.832	64.6656	587
291.071	65.1063	591
295.316	65.7672	597
298.594	66.2079	601
298.895	65.9876	599
299.689	65.8774	598
301.988	66.0977	600
303.791	66.2079	601
305.09	66.2079	601
306.899	66.318	602
308.2	66.318	602
306.931	65.7672	597
307.189	65.5469	595
307.438	65.3266	593
307.158	64.9961	590
307.388	64.7758	588
306.035	64.225	583
306.768	64.1148	582
308.026	64.1148	582
310.878	64.4453	585
316.412	65.3266	593
320.908	65.9876	599
321.127	65.7672	597
318.097	64.8859	589
317.201	64.4453	585
315.744	63.8945	580
316.998	63.8945	580
322.093	64.6656	587
325.014	64.9961	590
329.608	65.6571	596
332.007	65.8774	598
332.742	65.7672	597
331.794	65.3266	593
332.515	65.2164	592
329.847	64.4453	585
345.262	67.1993	610
349.99	67.8603	616
353.032	68.1908	619
352.08	67.7502	615
353.985	67.8603	616
354.163	67.64	614
352.595	67.0892	609
352.749	66.8689	607
354.061	66.8689	607
351.861	66.2079	601
351.985	65.9876	599
353.28	65.9876	599
355.758	66.2079	601
360.028	66.7587	606
360.146	66.5384	604
360.254	66.318	602
359.754	65.9876	599
361.652	66.0977	600
363.553	66.2079	601
367.888	66.7587	606
370.417	66.979	608
369.285	66.5384	604
371.204	66.6485	605
373.744	66.8689	607
373.82	66.6485	605
373.888	66.4282	603
375.191	66.4282	603
377.119	66.5384	604
380.305	66.8689	607
-502.982	76.6052	682
-499.302	76.2682	679
-492.702	75.482	672
-486.132	74.6957	665
-484.694	74.6957	665
-480.35	74.2464	661
-478.197	74.1341	660
-476.048	74.0218	659
-476.063	74.2464	661
-474.634	74.2464	661
-476.785	74.808	666
-472.49	74.3587	662
-469.636	74.1341	660
-467.5	74.0218	659
-467.49	74.2464	661
-466.061	74.2464	661
-463.929	74.1341	660
-464.605	74.4711	663
-465.966	74.9204	667
-462.435	74.5834	664
-463.777	75.0327	668
-466.485	75.7066	674
-465.028	75.7066	674
-462.883	75.5943	673
-452.515	74.1341	660
-447.671	73.5725	655
-448.981	74.0218	659
-446.877	73.9094	658
-445.455	73.9094	658
-444.032	73.9094	658
-445.3	74.3587	662
-445.21	74.5834	664
-437.76	73.5725	655
-424.353	71.5506	637
-422.976	71.5506	637
-428.879	72.7862	648
-427.478	72.7862	648
-426.078	72.7862	648
-424.677	72.7862	648
-423.276	72.7862	648
-423.177	73.0108	650
-421.123	72.8985	649
-422.954	73.4601	654
-422.185	73.5725	655
-423.338	74.0218	659
-424.475	74.4711	663
-423.042	74.4711	663
-422.244	74.5834	664
-418.908	74.2464	661
-414.321	73.6848	656
-410.385	73.2355	652
-408.976	73.2355	652
-408.816	73.4601	654
-406.157	73.2355	652
-407.851	73.7971	657
-411.38	74.6957	665
-411.792	75.0327	668
-410.348	75.0327	668
-409.516	75.145	669
-406.24	74.808	666
-401.761	74.2464	661
-398.515	73.9094	658
-392.868	73.1232	651
-390.86	73.0108	650
-391.851	73.4601	654
-393.422	74.0218	659
-394.377	74.4711	663
-395.907	75.0327	668
-395.644	75.2573	670
-394.196	75.2573	670
-389.231	74.5834	664
-386.627	74.3587	662
-381.123	73.5725	655
-378.548	73.3478	653
-377.136	73.3478	653
-375.724	73.3478	653
-376.033	73.6848	656
-378.612	74.4711	663
-380.023	75.0327	668
-379.146	75.145	669
-378.829	75.3697	671
-376.816	75.2573	670
-375.928	75.3697	671
-374.477	75.3697	671
-371.915	75.145	669
-369.915	75.0327	668
-366.816	74.6957	665
-364.28	74.4711	663
-362.299	74.3587	662
-361.958	74.5834	664
-360.523	74.5834	664
-355.843	73.9094	658
-350.111	73.0108	650
-349.243	73.1232	651
-348.904	73.3478	653
-349.089	73.6848	656
-337.071	71.4383	636
-333.585	70.989	632
-332.219	70.989	632
-333.47	71.5506	637
-334.178	71.9999	641
-335.389	72.5615	646
-332.958	72.3369	644
-331.051	72.2246	643
-332.737	72.8985	649
-330.313	72.6739	647
-324.848	71.7753	639
-324.479	71.9999	641
-324.605	72.3369	644
-326.726	73.1232	651
-324.819	73.0108	650
-318.439	71.8876	640
-313.092	70.989	632
-310.246	70.652	629
-309.868	70.8767	631
-310.949	71.4383	636
-315.415	72.7862	648
-314.499	72.8985	649
-311.166	72.4492	645
-307.851	71.9999	641
-305.987	71.8876	640
-304.604	71.8876	640
-301.325	71.4383	636
-298.064	70.989	632
-297.636	71.2137	634
-297.668	71.5506	637
-297.221	71.7753	639
-293.062	71.1013	633
-290.311	70.7644	630
-286.656	70.2027	625
-283.479	69.7534	621
-288.497	71.326	635
-288.933	71.7753	639
-288.902	72.1122	642
-288.41	72.3369	644
-288.354	72.6739	647
-285.625	72.3369	644
-284.233	72.3369	644
-281.963	72.1122	642
-280.138	71.9999	641
-280.057	72.3369	644
-279.097	72.4492	645
-277.703	72.4492	645
-277.165	72.6739	647
-276.193	72.7862	648
-273.096	72.3369	644
-268.75	71.5506	637
-266.954	71.4383	636
-268.919	72.3369	644
-267.527	72.3369	644
-264.482	71.8876	640
-263.099	71.8876	640
-261.306	71.7753	639
-259.111	71.5506	637
-258.948	71.8876	640
-258.772	72.2246	643
-258.583	72.5615	646
-258.779	73.0108	650
-260.541	73.9094	658
-261.482	74.5834	664
-258.088	74.0218	659
-253.937	73.2355	652
-249.429	72.3369	644
-248.422	72.4492	645
-245.879	72.1122	642
-239.541	70.652	629
-236.288	70.0904	624
-233.056	69.5288	619
-235.087	70.5397	628
-234.846	70.8767	631
-233.852	70.989	632
-232.118	70.8767	631
-228.925	70.3151	626
-227.572	70.3151	626
-225.135	69.9781	623
-228.099	71.326	635
-228.511	71.8876	640
-227.838	72.1122	642
-226.45	72.1122	642
-225.412	72.2246	643
-225.068	72.5615	646
-224.017	72.6739	647
-222.619	72.6739	647
-220.878	72.5615	646
-219.142	72.4492	645
-216.06	71.8876	640
-213.335	71.4383	636
-209.627	70.652	629
-205.949	69.8658	622
-203.618	69.5288	619
-202.933	69.7534	621
-203.214	70.3151	626
-204.118	71.1013	633
-204.031	71.5506	637
-202.654	71.5506	637
-200.961	71.4383	636
-197.703	70.7644	630
-194.783	70.2027	625
-192.813	69.9781	623
-193.31	70.652	629
-194.392	71.5506	637
-195.136	72.3369	644
-194.947	72.7862	648
-193.546	72.7862	648
-190.959	72.3369	644
-188.095	71.7753	639
-183.792	70.652	629
-181.272	70.2027	625
-179.633	70.0904	624
-179.142	70.4274	627
-179.204	70.989	632
-179.807	71.7753	639
-179.543	72.2246	643
-176.768	71.6629	638
-173.464	70.8767	631
-174.009	71.6629	638
-170.195	70.652	629
-166.419	69.6411	620
-165.079	69.6411	620
-166.38	70.7644	630
-165.018	70.7644	630
-164.176	70.989	632
-163.325	71.2137	634
-163.487	71.8876	640
-163.876	72.6739	647
-162.729	72.7862	648
-161.079	72.6739	647
-156.966	71.4383	636
-156.569	71.8876	640
-155.913	72.2246	643
-153.802	71.8876	640
-149.561	70.5397	628
-147.023	69.9781	623
-145.911	70.0904	624
-146.878	71.2137	634
-145.737	71.326	635
-144.819	71.5506	637
-144.793	72.2246	643
-144.073	72.5615	646
-142.013	72.2246	643
-139.093	71.4383	636
-135.119	70.0904	624
-132.27	69.3041	617
-129.875	68.7425	612
-128.762	68.8548	613
-128.268	69.3041	617
-128.375	70.0904	624
-128.044	70.652	629
-127.892	71.326	635
-126.918	71.5506	637
-125.147	71.326	635
-123.384	71.1013	633
-122.016	71.1013	633
-120.838	71.2137	634
-119.468	71.2137	634
-117.725	70.989	632
-115.99	70.7644	630
-114.265	70.5397	628
-112.368	70.2027	625
-111.727	70.652	629
-110.543	70.7644	630
-108.834	70.5397	628
-107.477	70.5397	628
-106.457	70.7644	630
-104.428	70.3151	626
-102.416	69.8658	622
-100.747	69.6411	620
-98.9253	69.3041	617
-99.1732	70.4274	627
-99.69	71.7753	639
-98.924	72.2246	643
-97.079	71.8876	640
-95.2469	71.5506	637
-93.7225	71.4383	636
-91.7669	70.989	632
-90.4007	70.989	632
-88.7527	70.7644	630
-86.9747	70.4274	627
-85.2096	70.0904	624
-84.2639	70.4274	627
-83.173	70.652	629
-81.9433	70.7644	630
-80.0698	70.3151	626
-77.9621	69.6411	620
-76.4983	69.5288	619
-75.403	69.7534	621
-73.8221	69.5288	619
-72.2498	69.3041	617
-70.801	69.1918	616
-69.2439	68.9672	614
-68.0272	69.0795	615
-66.6977	69.0795	615
-65.3683	69.0795	615
-64.0388	69.0795	615
-62.7094	69.0795	615
-61.5795	69.3041	617
-60.1481	69.1918	616
-59.2939	69.7534	621
-57.0183	68.6302	611
-55.2417	68.0686	606
-53.9317	68.0686	606
-53.0559	68.6302	611
-52.3278	69.4165	618
-51.2393	69.7534	621
-50.0576	69.9781	623
-48.4763	69.6411	620
-46.6039	68.8548	613
-45.5003	69.1918	616
-44.3838	69.5288	619
-43.1848	69.7534	621
-42.0445	70.0904	624
-40.4347	69.6411	620
-38.8422	69.1918	616
-37.3279	68.8548	613
-35.533	67.9562	605
-34.2817	68.0686	606
-33.0805	68.2932	608
-31.9752	68.7425	612
-30.8025	69.0795	615
-29.3772	68.8548	613
-27.8232	68.2932	608
-26.5961	68.5179	610
-25.1117	68.0686	606
-23.8017	68.0686	606
-22.7144	68.7425	612
-21.3215	68.5179	610
-19.7077	67.507	601
-18.5004	67.8439	604
-17.3371	68.4055	609
-16.1785	69.0795	615
-14.8731	69.1918	616
-13.5415	69.1918	616
-12.1703	68.9672	614
-10.9313	69.5288	619
-9.59318	69.5288	619
-8.2284	69.3041	617
-6.88345	69.1918	616
-5.5248	68.8548	613
-4.21337	69.0795	615
-2.89798	69.4165	618
-1.55699	69.1918	616
-0.224637	68.9672	614
1.09906	68.7425	612
2.41412	68.5179	610
3.72665	68.4055	609
5.03485	68.2932	608
6.3074	67.8439	604
7.60047	67.7316	603
8.91875	67.8439	604
10.4276	69.1918	616
11.8928	69.9781	623
13.3246	70.4274	627
14.6331	70.2027	625
16.0098	70.3151	626
17.3353	70.2027	625
18.7461	70.4274	627
19.7168	69.0795	615
21.0121	68.9672	614
22.4849	69.4165	618
23.7052	69.0795	615
24.9532	68.8548	613
26.407	69.1918	616
27.5134	68.6302	611
28.787	68.5179	610
30.2537	68.8548	613
31.6304	68.9672	614
32.6356	68.2932	608
33.7824	67.9562	605
34.9743	67.7316	603
36.4583	68.0686	606
38.0176	68.5179	610
39.4652	68.7425	612
40.9881	69.0795	615
41.8359	68.2932	608
43.1502	68.2932	608
44.8302	68.8548	613
46.08	68.7425	612
46.8608	67.9562	605
47.7706	67.3946	600
49.3129	67.7316	603
50.5325	67.6193	602
52.0922	67.9562	605
53.9296	68.6302	611
53.9844	67.0576	597
56.0157	67.9562	605
57.7025	68.4055	609
58.9221	68.2932	608
59.8401	67.8439	604
60.6396	67.2823	599
61.7277	67.0576	597
62.7016	66.7207	594
64.0933	66.833	595
65.8191	67.2823	599
67.4501	67.6193	602
69.7793	68.6302	611
71.6819	69.1918	616
72.1838	68.4055	609
73.0176	67.9562	605
73.4654	67.17	598
74.6331	67.0576	597
76.8139	67.8439	604
76.5675	66.496	592
77.5843	66.2714	590
79.6616	66.9453	596
81.4933	67.3946	600
82.9283	67.507	601
82.9662	66.496	592
84.2459	66.496	592
85.0923	66.1591	589
86.0723	65.9344	587
88.2339	66.6084	593
90.4216	67.2823	599
92.1758	67.6193	602
92.856	67.17	598
92.102	65.7098	585
93.207	65.5974	584
94.9547	65.9344	587
97.3711	66.7207	594
99.1535	67.0576	597
100.612	67.17	598
101.394	66.833	595
101.99	66.3837	591
103.092	66.2714	590
104.191	66.1591	589
106.718	66.9453	596
108.55	67.2823	599
109.661	67.17	598
110.768	67.0576	597
112.622	67.3946	600
114.489	67.7316	603
115.792	67.7316	603
116.707	67.507	601
117.025	66.9453	596
117.122	66.2714	590
117.394	65.7098	585
118.862	65.8221	586
120.948	66.2714	590
123.467	66.9453	596
125.383	67.2823	599
126.466	67.17	598
126.904	66.7207	594
127.973	66.6084	593
129.691	66.833	595
131.197	66.9453	596
132.485	66.9453	596
133.998	67.0576	597
134.609	66.7207	594
134.749	66.1591	589
136.484	66.3837	591
137.062	66.0467	588
139.275	66.496	592
140.079	66.2714	590
141.594	66.3837	591
143.839	66.833	595
145.125	66.833	595
145.919	66.6084	593
146.705	66.3837	591
147.482	66.1591	589
149.26	66.3837	591
152.066	67.0576	597
151.044	66.0467	588
152.834	66.2714	590
153.064	65.8221	586
155.384	66.2714	590
157.987	66.833	595
159.541	66.9453	596
158.401	65.9344	587
156.678	64.6988	576
156.826	64.2495	572
158.892	64.5865	575
160.135	64.5865	575
162.5	65.0358	579
165.166	65.5974	584
167.284	65.9344	587
169.127	66.1591	589
170.4	66.1591	589
169.924	65.4851	583
170.598	65.2605	581
170.079	64.5865	575
170.428	64.2495	572
171.664	64.2495	572
173.808	64.5865	575
178.704	65.9344	587
178.133	65.2605	581
178.772	65.0358	579
181.578	65.5974	584
180.962	64.9235	578
180.95	64.4742	574
183.461	64.9235	578
186.308	65.4851	583
189.499	66.1591	589
192.068	66.6084	593
194.002	66.833	595
195.288	66.833	595
193.931	65.9344	587
194.202	65.5974	584
194.126	65.1481	580
194.706	64.9235	578
196.973	65.2605	581
201.64	66.3837	591
203.261	66.496	592
203.505	66.1591	589
203.387	65.7098	585
203.952	65.4851	583
204.508	65.2605	581
207.181	65.7098	585
208.802	65.8221	586
210.069	65.8221	586
208.09	64.8112	577
209.7	64.9235	578
210.949	64.9235	578
213.3	65.2605	581
216.033	65.7098	585
215.812	65.2605	581
217.441	65.3728	582
221.706	66.2714	590
224.871	66.833	595
226.157	66.833	595
226.297	66.496	592
225.654	65.9344	587
224.217	65.1481	580
228.192	65.9344	587
232.197	66.7207	594
231.516	66.1591	589
230.418	65.4851	583
230.089	65.0358	579
230.142	64.6988	576
230.583	64.4742	574
230.209	64.0249	570
232.253	64.2495	572
233.489	64.2495	572
235.547	64.4742	574
238.438	64.9235	578
239.687	64.9235	578
240.936	64.9235	578
234.225	62.7893	559
236.276	63.014	561
238.335	63.2386	563
239.126	63.1263	562
238.203	62.5647	557
239.407	62.5647	557
241.907	62.9016	560
245.723	63.5756	566
252.182	64.9235	578
253.431	64.9235	578
255.562	65.1481	580
255.045	64.6988	576
254.955	64.3619	573
258.429	64.9235	578
262.374	65.5974	584
264.539	65.8221	586
265.353	65.7098	585
266.161	65.5974	584
268.34	65.8221	586
267.306	65.2605	581
264.402	64.2495	572
263.781	63.8002	568
266.408	64.1372	571
269.986	64.6988	576
273.586	65.2605	581
275.788	65.4851	583
278.949	65.9344	587
280.695	66.0467	588
278.61	65.2605	581
276.494	64.4742	574
273.864	63.5756	566
279.948	64.6988	576
280.216	64.4742	574
283.418	64.9235	578
287.623	65.5974	584
290.369	65.9344	587
291.638	65.9344	587
291.909	65.7098	585
289.666	64.9235	578
289.405	64.5865	575
294.692	65.4851	583
299.506	66.2714	590
299.762	66.0467	588
303.593	66.6084	593
303.332	66.2714	590
303.575	66.0467	588
303.291	65.7098	585
302.994	65.3728	582
303.206	65.1481	580
301.835	64.5865	575
302.551	64.4742	574
303.263	64.3619	573
306.627	64.8112	577
308.408	64.9235	578
309.657	64.9235	578
309.293	64.5865	575
307.836	64.0249	570
308.526	63.9126	569
311.389	64.2495	572
313.172	64.3619	573
316.606	64.8112	577
319.505	65.1481	580
323.524	65.7098	585
327.01	66.1591	589
327.726	66.0467	588
327.878	65.8221	586
325.213	65.0358	579
324.209	64.5865	575
323.754	64.2495	572
325.559	64.3619	573
326.227	64.2495	572
329.181	64.5865	575
345.365	67.507	601
346.087	67.3946	600
347.384	67.3946	600
347.519	67.17	598
348.812	67.17	598
346.006	66.3837	591
346.109	66.1591	589
349.741	66.6084	593
350.431	66.496	592
349.928	66.1591	589
345.835	65.1481	580
344.097	64.5865	575
344.739	64.4742	574
347.788	64.8112	577
353.27	65.5974	584
356.961	66.0467	588
359.45	66.2714	590
358.28	65.8221	586
360.16	65.9344	587
366.355	66.833	595
368.259	66.9453	596
368.308	66.7207	594
369.592	66.7207	594
370.876	66.7207	594
372.786	66.833	595
-494.132	76.7055	670
-491.213	76.4766	668
-484.637	75.6752	661
-478.091	74.8738	654
-476.677	74.8738	654
-471.63	74.3013	649
-470.227	74.3013	649
-470.268	74.5303	651
-467.421	74.3013	649
-466.018	74.3013	649
-466.047	74.5303	651
-461.784	74.0724	647
-458.251	73.7289	644
-458.278	73.9579	646
-459.003	74.3013	649
-457.6	74.3013	649
-459.009	74.7593	653
-460.4	75.2172	657
-461.076	75.5607	660
-456.167	74.9883	655
-458.222	75.5607	660
-459.564	76.0186	664
-458.129	76.0186	664
-449.128	74.7593	653
-431.947	72.1261	630
-427.851	71.6682	626
-432.629	72.6985	635
-435.332	73.3855	641
-429.207	72.584	634
-427.836	72.584	634
-421.085	71.6682	626
-419.731	71.6682	626
-416.373	71.3247	623
-415.693	71.4392	624
-415.672	71.6682	626
-420.275	72.6985	635
-419.562	72.813	636
-418.187	72.813	636
-415.502	72.584	634
-414.131	72.584	634
-411.459	72.3551	632
-408.146	72.0116	629
-410.02	72.584	634
-413.806	73.4999	642
-416.272	74.1869	648
-418.072	74.7593	653
-416.661	74.7593	653
-415.249	74.7593	653
-409.401	73.9579	646
-407.373	73.8434	645
-405.979	73.8434	645
-405.212	73.9579	646
-403.816	73.9579	646
-401.796	73.8434	645
-401.023	73.9579	646
-405.194	74.9883	655
-408.093	75.7896	662
-406.662	75.7896	662
-406.455	76.0186	664
-403.8	75.7896	662
-398.722	75.1027	656
-391.247	73.9579	646
-386.833	73.3855	641
-386.049	73.4999	642
-387.058	73.9579	646
-389.243	74.6448	652
-391.403	75.3317	658
-390.573	75.4462	659
-387.377	75.1027	656
-385.371	74.9883	655
-380.438	74.3013	649
-379.035	74.3013	649
-377.05	74.1869	648
-373.33	73.7289	644
-371.938	73.7289	644
-370.546	73.7289	644
-372.593	74.4158	650
-374.614	75.1027	656
-375.472	75.5607	660
-376.879	76.1331	665
-373.183	75.6752	661
-371.754	75.6752	661
-372.006	76.0186	664
-371.687	76.2476	666
-368.023	75.7896	662
-364.931	75.4462	659
-360.748	74.8738	654
-360.983	75.2172	657
-356.826	74.6448	652
-347.24	72.9275	637
-343.148	72.3551	632
-339.078	71.7826	627
-336.646	71.5537	625
-335.831	71.6682	626
-334.478	71.6682	626
-333.124	71.6682	626
-328.591	70.9812	620
-323.556	70.1798	613
-323.283	70.4088	615
-326.141	71.3247	623
-327.922	72.0116	629
-327.601	72.2406	631
-325.203	72.0116	629
-322.813	71.7826	627
-319.407	71.3247	623
-317.039	71.0957	621
-318.239	71.6682	626
-319.923	72.3551	632
-319.061	72.4696	633
-316.689	72.2406	631
-312.826	71.6682	626
-311.473	71.6682	626
-309.129	71.4392	624
-306.3	71.0957	621
-305.449	71.2102	622
-306.06	71.6682	626
-306.654	72.1261	630
-307.23	72.584	634
-305.377	72.4696	633
-300.647	71.6682	626
-299.772	71.7826	627
-297.464	71.5537	625
-295.64	71.4392	624
-292.404	70.9812	620
-291.533	71.0957	621
-292.527	71.6682	626
-291.639	71.7826	627
-289.821	71.6682	626
-285.703	70.9812	620
-282.069	70.4088	615
-278.001	69.7219	609
-277.139	69.8364	610
-277.177	70.1798	613
-276.752	70.4088	615
-271.839	69.4929	607
-269.19	69.1495	604
-266.997	68.9205	602
-266.579	69.1495	604
-268.787	70.0654	612
-269.649	70.6378	617
-274.403	72.2406	631
-272.607	72.1261	630
-270.814	72.0116	629
-271.168	72.4696	633
-269.8	72.4696	633
-266.311	71.8971	628
-260.312	70.6378	617
-257.3	70.1798	613
-256.81	70.4088	615
-257.142	70.8668	619
-258.283	71.5537	625
-258.166	71.8971	628
-258.444	72.3551	632
-257.078	72.3551	632
-256.521	72.584	634
-255.955	72.813	636
-254.58	72.813	636
-252.409	72.584	634
-253.018	73.1565	639
-252.031	73.271	640
-248.689	72.6985	635
-245.369	72.1261	630
-242.458	71.6682	626
-238.409	70.8668	619
-236.687	70.7523	618
-236.113	70.9812	620
-233.258	70.5233	616
-229.291	69.7219	609
-230.595	70.5233	616
-231.124	71.0957	621
-232.002	71.7826	627
-231.014	71.8971	628
-228.56	71.5537	625
-224.664	70.7523	618
-222.244	70.4088	615
-220.555	70.2943	614
-223.513	71.6682	626
-223.224	72.0116	629
-221.864	72.0116	629
-221.907	72.4696	633
-222.28	73.042	638
-221.248	73.1565	639
-218.146	72.584	634
-216.775	72.584	634
-214.725	72.3551	632
-212.346	72.0116	629
-209.645	71.5537	625
-206.627	70.9812	620
-202.307	69.9509	611
-200.657	69.8364	610
-199.992	70.0654	612
-200.617	70.7523	618
-200.893	71.3247	623
-200.187	71.5537	625
-198.518	71.4392	624
-197.801	71.6682	626
-195.506	71.3247	623
-191.978	70.5233	616
-190.337	70.4088	615
-189.315	70.5233	616
-188.899	70.8668	619
-186.349	70.4088	615
-185.922	70.7523	618
-183.988	70.5233	616
-187.401	72.3551	632
-185.152	72.0116	629
-182.039	71.3247	623
-179.822	70.9812	620
-178.482	70.9812	620
-177.142	70.9812	620
-176.085	71.0957	621
-173.335	70.5233	616
-171.166	70.1798	613
-170.118	70.2943	614
-169.341	70.5233	616
-168.282	70.6378	617
-166.407	70.4088	615
-164.541	70.1798	613
-163.748	70.4088	615
-161.89	70.1798	613
-160.827	70.2943	614
-161.058	70.9812	620
-159.203	70.7523	618
-157.101	70.4088	615
-154.505	69.8364	610
-154.191	70.2943	614
-153.61	70.6378	617
-154.004	71.4392	624
-153.144	71.6682	626
-152.276	71.8971	628
-151.399	72.1261	630
-146.703	70.5233	616
-144.192	69.9509	611
-143.105	70.0654	612
-142.94	70.6378	617
-143.442	71.5537	625
-142.319	71.6682	626
-140.065	71.2102	622
-140.504	72.1261	630
-139.363	72.2406	631
-136.468	71.4392	624
-133.387	70.5233	616
-130.34	69.6074	608
-127.965	69.035	603
-126.241	68.806	601
-125.358	69.035	603
-124.672	69.3784	606
-125.804	70.7523	618
-127.288	72.3551	632
-125.922	72.3551	632
-124.359	72.2406	631
-122.215	71.7826	627
-121.052	71.8971	628
-119.504	71.7826	627
-116.453	70.7523	618
-114.372	70.2943	614
-113.597	70.6378	617
-112.445	70.7523	618
-110.75	70.5233	616
-107.997	69.6074	608
-107.384	70.0654	612
-106.755	70.5233	616
-105.765	70.7523	618
-104.598	70.8668	619
-102.927	70.6378	617
-100.44	69.8364	610
-98.1467	69.1495	604
-97.803	69.8364	610
-97.4334	70.5233	616
-97.6618	71.6682	626
-97.3855	72.4696	633
-96.1689	72.584	634
-94.0507	72.0116	629
-91.8068	71.3247	623
-90.7505	71.5537	625
-89.3994	71.5537	625
-88.0483	71.5537	625
-86.0037	70.9812	620
-84.1172	70.5233	616
-83.4575	71.0957	621
-82.3796	71.3247	623
-80.5126	70.8668	619
-78.7907	70.5233	616
-77.3334	70.4088	615
-75.8803	70.2943	614
-74.1888	69.9509	611
-72.5102	69.6074	608
-71.1959	69.6074	608
-69.9965	69.7219	609
-68.4544	69.4929	607
-67.0317	69.3784	606
-65.7217	69.3784	606
-64.4117	69.3784	606
-63.2058	69.4929	607
-61.7917	69.3784	606
-60.5815	69.4929	607
-59.4646	69.7219	609
-57.6707	69.1495	604
-55.1519	67.6612	591
-53.8743	67.6612	591
-52.8637	68.0046	594
-52.2743	68.9205	602
-51.3964	69.4929	607
-50.4967	70.0654	612
-49.2541	70.1798	613
-47.2253	69.1495	604
-45.8436	69.035	603
-44.6878	69.264	605
-43.4517	69.3784	606
-42.3503	69.7219	609
-41.1012	69.8364	610
-39.6521	69.6074	608
-38.0225	69.035	603
-36.2319	68.1191	595
-34.8869	68.0046	594
-33.4897	67.7756	592
-32.21	67.7756	592
-31.087	68.1191	595
-30.2014	69.035	603
-28.9938	69.264	605
-27.6859	69.264	605
-26.2473	68.9205	602
-24.9874	69.035	603
-23.6446	68.9205	602
-22.269	68.6915	600
-20.9021	68.4626	598
-19.6094	68.4626	598
-18.2554	68.2336	596
-17.1094	68.806	601
-15.7839	68.6915	600
-14.3661	68.1191	595
-12.992	67.6612	591
-11.6946	67.5467	590
-10.6134	68.806	601
-9.32971	68.9205	602
-7.97502	68.4626	598
-6.65996	68.2336	596
-5.40763	68.6915	600
-4.14486	69.264	605
-2.85578	69.7219	609
-1.54182	69.8364	610
-0.220247	68.9205	602
1.07572	68.577	599
2.36267	68.3481	597
3.64098	68.1191	595
4.91063	67.8901	593
6.15076	67.4322	589
7.36099	66.8598	584
8.6382	66.9742	585
9.93665	67.2032	587
11.2438	67.4322	589
12.7295	68.577	599
14.2351	69.6074	608
15.6773	70.1798	613
17.0302	70.2943	614
18.2379	69.8364	610
19.3962	69.264	605
20.6698	69.1495	604
21.83	68.6915	600
23.0114	68.3481	597
24.1798	68.0046	594
25.4639	68.0046	594
26.928	68.4626	598
28.2679	68.577	599
29.6615	68.806	601
30.9092	68.6915	600
31.9378	68.1191	595
33.3916	68.4626	598
34.6843	68.4626	598
35.9168	68.3481	597
37.5813	69.035	603
38.9493	69.1495	604
40.3216	69.264	605
41.3542	68.806	601
42.4405	68.4626	598
43.9526	68.806	601
45.553	69.264	605
46.6284	68.9205	602
47.5317	68.3481	597
48.904	68.4626	598
50.0289	68.2336	596
50.9728	67.7756	592
52.2526	67.7756	592
53.5323	67.7756	592
54.812	67.7756	592
56.1865	67.8901	593
56.8869	67.2032	587
57.8586	66.8598	584
59.1211	66.8598	584
59.7632	66.1728	578
61.4349	66.6308	582
63.3393	67.3177	588
64.7203	67.4322	589
66.3296	67.7756	592
67.952	68.1191	595
69.4709	68.3481	597
70.7615	68.3481	597
71.9313	68.2336	596
72.2369	67.3177	588
72.6329	66.5163	581
73.3802	66.0583	577
75.0155	66.4018	580
76.0063	66.1728	578
77.2558	66.1728	578
77.6903	65.4859	572
78.7888	65.3714	571
81.9852	66.9742	585
82.6806	66.5163	581
84.5144	66.9742	585
86.2189	67.3177	588
88.0851	67.7756	592
90.1197	68.3481	597
90.7977	67.8901	593
90.3716	66.6308	582
90.2127	65.6004	573
91.7706	65.8294	575
93.6606	66.2873	579
95.7319	66.8598	584
97.3265	67.0887	586
98.7615	67.2032	587
99.3488	66.7453	583
100.437	66.6308	582
100.297	65.7149	574
101.007	65.3714	571
104.211	66.6308	582
106.375	67.2032	587
108.194	67.5467	590
109.47	67.5467	590
111.496	68.0046	594
113.16	68.2336	596
114.64	68.3481	597
115.542	68.1191	595
115.061	67.0887	586
114.938	66.2873	579
115.789	66.0583	577
117.239	66.1728	578
119.513	66.7453	583
122.017	67.4322	589
123.29	67.4322	589
124.14	67.2032	587
124.768	66.8598	584
126.246	66.9742	585
127.729	67.0887	586
128.335	66.7453	583
128.706	66.2873	579
129.958	66.2873	579
131.436	66.4018	580
132.232	66.1728	578
134.175	66.5163	581
135.431	66.5163	581
136.216	66.2873	579
136.993	66.0583	577
138.719	66.2873	579
140.696	66.6308	582
141.711	66.5163	581
141.736	65.9439	576
143.229	66.0583	577
144.978	66.2873	579
144.461	65.4859	572
145.698	65.4859	572
145.393	64.799	566
145.58	64.3411	562
149.407	65.4859	572
152.224	66.1728	578
156.129	67.3177	588
157.668	67.4322	589
154.353	65.4859	572
154.774	65.1425	569
156.552	65.3714	571
158.063	65.4859	572
159.578	65.6004	573
160.536	65.4859	572
162.055	65.6004	573
164.719	66.1728	578
165.394	65.9439	576
165.771	65.6004	573
166.135	65.257	570
167.074	65.1425	569
167.417	64.799	566
167.448	64.3411	562
168.363	64.2266	561
170.483	64.57	564
173.224	65.1425	569
173.841	64.9135	567
175.067	64.9135	567
177.225	65.257	570
178.144	65.1425	569
178.113	64.6845	565
180.287	65.028	568
182.793	65.4859	572
185.638	66.0583	577
189.153	66.8598	584
192.697	67.6612	591
194.631	67.8901	593
193.601	67.0887	586
192.207	66.1728	578
192.118	65.7149	574
192.685	65.4859	572
193.243	65.257	570
196.523	65.9439	576
200.171	66.7453	583
200.395	66.4018	580
200.953	66.1728	578
201.153	65.8294	575
201.34	65.4859	572
201.869	65.257	570
201.319	64.6845	565
202.541	64.6845	565
204.844	65.028	568
206.434	65.1425	569
208.394	65.3714	571
208.895	65.1425	569
210.125	65.1425	569
209.869	64.6845	565
213.705	65.4859	572
220.203	67.0887	586
223.737	67.7756	592
225.397	67.8901	593
224.385	67.2032	587
220.272	65.6004	573
218.805	64.799	566
218.862	64.4556	563
221.643	64.9135	567
224.441	65.3714	571
226.07	65.4859	572
226.91	65.3714	571
223.349	63.9976	559
222.951	63.5397	555
223.747	63.4252	554
226.162	63.7686	557
227.775	63.8831	558
228.571	63.7686	557
228.95	63.5397	555
229.32	63.3107	553
227.597	62.5093	546
227.521	62.1658	543
229.958	62.5093	546
232.832	62.9672	550
233.595	62.8527	549
235.21	62.9672	550
238.118	63.4252	554
241.475	63.9976	559
243.986	64.3411	562
248.255	65.1425	569
248.17	64.799	566
247.631	64.3411	562
248.846	64.3411	562
250.06	64.3411	562
252.17	64.57	564
254.287	64.799	566
255.059	64.6845	565
255.827	64.57	564
256.591	64.4556	563
257.808	64.4556	563
258.105	64.2266	561
260.704	64.57	564
259.601	63.9976	559
262.676	64.4556	563
265.299	64.799	566
266.523	64.799	566
267.273	64.6845	565
267.544	64.4556	563
268.284	64.3411	562
269.019	64.2266	561
269.75	64.1121	560
268.057	63.4252	554
268.283	63.1962	552
270.941	63.5397	555
273.612	63.8831	558
270.385	62.8527	549
270.583	62.6238	547
272.262	62.7383	548
275.942	63.3107	553
280.144	63.9976	559
281.856	64.1121	560
282.561	63.9976	559
286.815	64.6845	565
297.723	66.8598	584
300.009	67.0887	586
298.705	66.5163	581
297.38	65.9439	576
295.514	65.257	570
297.787	65.4859	572
298.501	65.3714	571
298.161	65.028	568
298.334	64.799	566
301.675	65.257	570
305.033	65.7149	574
306.274	65.7149	574
304.3	65.028	568
303.914	64.6845	565
302.435	64.1121	560
302.561	63.8831	558
305.401	64.2266	561
306.613	64.2266	561
309.472	64.57	564
314.548	65.3714	571
317.441	65.7149	574
320.903	66.1728	578
323.267	66.4018	580
319.485	65.3714	571
319.034	65.028	568
320.826	65.1425	569
322.056	65.1425	569
323.854	65.257	570
325.086	65.257	570
323.456	64.6845	565
324.677	64.6845	565
327.052	64.9135	567
327.699	64.799	566
328.923	64.799	566
341.812	67.0887	586
341.908	66.8598	584
341.995	66.6308	582
343.843	66.7453	583
346.287	66.9742	585
346.364	66.7453	583
346.431	66.5163	581
345.892	66.1728	578
348.943	66.5163	581
348.391	66.1728	578
350.245	66.2873	579
350.283	66.0583	577
349.702	65.7149	574
346.663	64.9135	567
351.571	65.6004	573
355.888	66.1728	578
363.316	67.3177	588
364.587	67.3177	588
365.858	67.3177	588
363.383	66.6308	582
364.015	66.5163	581
-486.02	76.8706	659
-483.124	76.6373	657
-477.305	75.9374	651
-471.511	75.2376	645
-470.117	75.2376	645
-465.816	74.771	641
-464.43	74.771	641
-461.6	74.5377	639
-461.659	74.771	641
-454.529	73.8378	633
-453.161	73.8378	633
-453.22	74.0711	635
-450.424	73.8378	633
-448.346	73.7212	632
-448.394	73.9544	634
-447.024	73.9544	634
-449.168	74.5377	639
-452.692	75.3542	646
-440.118	73.4879	630
-443.631	74.3044	637
-444.337	74.6543	640
-430.495	72.5547	622
-429.151	72.5547	622
-421.616	71.5049	613
-420.977	71.6215	614
-418.966	71.5049	613
-419.003	71.7381	615
-417.674	71.7381	615
-413.636	71.2716	611
-412.316	71.2716	611
-410.322	71.1549	610
-410.344	71.3882	612
-410.358	71.6215	614
-411.029	71.9714	617
-411.688	72.3214	620
-411.671	72.5547	622
-410.327	72.5547	622
-408.982	72.5547	622
-407.637	72.5547	622
-404.986	72.3214	620
-402.995	72.2047	619
-401.657	72.2047	619
-400.966	72.3214	620
-402.204	72.788	624
-404.709	73.4879	630
-406.548	74.0711	635
-405.176	74.0711	635
-404.439	74.1877	636
-404.331	74.421	638
-402.321	74.3044	637
-399.685	74.0711	635
-397.685	73.9544	634
-396.314	73.9544	634
-394.321	73.8378	633
-389.849	73.2546	628
-392.821	74.0711	635
-392.065	74.1877	636
-398.062	75.5875	648
-396.661	75.5875	648
-395.87	75.7042	649
-393.252	75.4709	647
-386.402	74.421	638
-381.402	73.7212	632
-380.036	73.7212	632
-381.665	74.3044	637
-379.691	74.1877	636
-376.532	73.8378	633
-372.2	73.2546	628
-374.386	73.9544	634
-375.369	74.421	638
-375.748	74.771	641
-375.531	75.0043	643
-371.813	74.5377	639
-368.693	74.1877	636
-366.74	74.0711	635
-365.368	74.0711	635
-368.007	74.8876	642
-368.904	75.3542	646
-370.352	75.9374	651
-370.078	76.1707	653
-368.666	76.1707	653
-367.255	76.1707	653
-368.645	76.754	658
-364.432	76.1707	653
-347.454	72.9046	625
-342.78	72.2047	619
-335.375	70.9216	608
-332.412	70.5717	605
-332.746	70.9216	608
-334.702	71.6215	614
-336.09	72.2047	619
-331.507	71.5049	613
-327.489	70.9216	608
-327.784	71.2716	611
-327.532	71.5049	613
-325.674	71.3882	612
-321.702	70.805	607
-317.222	70.1051	601
-316.449	70.2217	602
-318.289	70.9216	608
-320.102	71.6215	614
-321.371	72.2047	619
-321.067	72.438	621
-318.18	72.0881	618
-312.742	71.1549	610
-310.403	70.9216	608
-310.105	71.1549	610
-310.811	71.6215	614
-310.996	71.9714	617
-306.651	71.2716	611
-307.329	71.7381	615
-305.502	71.6215	614
-302.689	71.2716	611
-301.368	71.2716	611
-297.592	70.6883	606
-298.726	71.2716	611
-298.866	71.6215	614
-302.869	72.9046	625
-301.035	72.788	624
-298.726	72.5547	622
-297.381	72.5547	622
-294.133	72.0881	618
-290.428	71.5049	613
-287.216	71.0383	609
-285.9	71.0383	609
-283.182	70.6883	606
-280.476	70.3384	603
-278.71	70.2217	602
-277.408	70.2217	602
-274.731	69.8718	599
-272.523	69.6385	597
-271.233	69.6385	597
-270.846	69.8718	599
-267.752	69.4052	595
-266.017	69.2886	594
-262.951	68.822	590
-261.232	68.7053	589
-261.283	69.0553	592
-264.834	70.3384	603
-267.027	71.2716	611
-267.011	71.6215	614
-266.981	71.9714	617
-264.786	71.7381	615
-261.315	71.1549	610
-259.144	70.9216	608
-251.469	69.1719	593
-253.14	69.9884	600
-252.683	70.2217	602
-253.052	70.6883	606
-254.649	71.5049	613
-254.564	71.8548	616
-253.232	71.8548	616
-251.083	71.6215	614
-248.942	71.3882	612
-247.619	71.3882	612
-247.504	71.7381	615
-247.375	72.0881	618
-248.03	72.6713	623
-245.099	72.2047	619
-242.58	71.8548	616
-240.465	71.6215	614
-237.969	71.2716	611
-235.099	70.805	607
-233.402	70.6883	606
-232.475	70.805	607
-231.162	70.805	607
-229.093	70.5717	605
-226.656	70.2217	602
-226.103	70.455	604
-227.775	71.3882	612
-229.042	72.2047	619
-228.807	72.5547	622
-226.366	72.2047	619
-222.846	71.5049	613
-218.269	70.455	604
-216.245	70.2217	602
-217.086	70.9216	608
-216.836	71.2716	611
-215.162	71.1549	610
-215.246	71.6215	614
-213.919	71.6215	614
-210.514	70.9216	608
-208.168	70.5717	605
-208.911	71.2716	611
-210.988	72.438	621
-209.645	72.438	621
-205.955	71.6215	614
-202.628	70.9216	608
-199.658	70.3384	603
-197.368	69.9884	600
-196.724	70.2217	602
-197.371	70.9216	608
-197.346	71.3882	612
-195.703	71.2716	611
-194.382	71.2716	611
-194.009	71.6215	614
-192.682	71.6215	614
-190.732	71.3882	612
-187.242	70.5717	605
-185.32	70.3384	603
-184.016	70.3384	603
-182.41	70.2217	602
-181.71	70.455	604
-181.599	70.9216	608
-181.174	71.2716	611
-181.031	71.7381	615
-179.117	71.5049	613
-176.632	71.0383	609
-173.3	70.2217	602
-172.284	70.3384	603
-171.832	70.6883	606
-171.366	71.0383	609
-168.653	70.455	604
-167.347	70.455	604
-165.492	70.2217	602
-164.191	70.2217	602
-162.078	69.8718	599
-159.977	69.5218	596
-159.488	69.8718	599
-158.721	70.1051	601
-157.422	70.1051	601
-155.863	69.9884	600
-155.854	70.5717	605
-154.035	70.3384	603
-154.251	71.0383	609
-152.182	70.6883	606
-151.867	71.1549	610
-151.783	71.7381	615
-149.964	71.5049	613
-149.609	71.9714	617
-147.794	71.7381	615
-144.322	70.6883	606
-141.596	69.9884	600
-140.766	70.2217	602
-139.928	70.455	604
-138.852	70.5717	605
-137.317	70.455	604
-136.236	70.5717	605
-133.59	69.8718	599
-131.412	69.4052	595
-131.438	70.1051	601
-131.005	70.5717	605
-128.411	69.8718	599
-125.631	69.0553	592
-124.771	69.2886	594
-123.279	69.1719	593
-123.437	69.9884	600
-122.955	70.455	604
-121.447	70.3384	603
-119.745	70.1051	601
-119.235	70.5717	605
-118.706	71.0383	609
-117.775	71.2716	611
-115.12	70.455	604
-110.611	68.472	587
-110.46	69.1719	593
-111.94	70.9216	608
-111.353	71.3882	612
-110.39	71.6215	614
-108.53	71.2716	611
-106.683	70.9216	608
-104.848	70.5717	605
-103.369	70.455	604
-101.557	70.1051	601
-100.091	69.9884	600
-98.6291	69.8718	599
-96.8467	69.5218	596
-95.7187	69.6385	597
-95.3771	70.3384	603
-96.1017	71.8548	616
-95.8471	72.6713	623
-94.1969	72.438	621
-92.2564	71.9714	617
-90.6279	71.7381	615
-88.8629	71.3882	612
-87.826	71.6215	614
-86.7804	71.8548	616
-84.7552	71.2716	611
-82.6151	70.5717	605
-80.9041	70.2217	602
-78.8094	69.5218	596
-76.8706	68.9386	591
-75.8489	69.1719	593
-75.3214	69.8718	599
-74.0266	69.8718	599
-72.246	69.4052	595
-70.9598	69.4052	595
-69.9078	69.6385	597
-68.7322	69.7551	598
-67.5522	69.8718	599
-66.1468	69.7551	598
-64.2033	69.0553	592
-63.4551	69.6385	597
-62.3728	69.8718	599
-60.4661	69.1719	593
-58.5854	68.472	587
-56.8282	67.8888	582
-55.2837	67.5388	579
-54.6853	68.3554	586
-53.6008	68.5887	588
-52.3298	68.5887	588
-50.7113	68.1221	584
-50.8036	69.9884	600
-49.3416	69.7551	598
-47.8882	69.5218	596
-46.2089	68.9386	591
-44.9313	68.9386	591
-43.8014	69.1719	593
-42.8064	69.6385	597
-41.7244	69.9884	600
-40.4948	70.1051	601
-38.9347	69.6385	597
-37.0767	68.5887	588
-35.3793	67.7721	581
-33.9472	67.4222	578
-32.3583	66.7223	572
-31.0674	66.6057	571
-29.7808	66.489	570
-29.0996	67.7721	581
-28.3228	68.9386	591
-27.2741	69.5218	596
-26.2473	70.2217	602
-25.0703	70.5717	605
-23.6839	70.3384	603
-22.1205	69.5218	596
-20.6574	68.9386	591
-19.3798	68.9386	591
-18.0104	68.5887	588
-16.6823	68.3554	586
-15.626	69.2886	594
-14.2695	68.9386	591
-12.948	68.7053	589
-11.6946	68.822	590
-10.4192	68.822	590
-9.17474	69.0553	592
-7.86833	68.822	590
-6.58174	68.7053	589
-5.3175	68.822	590
-4.03524	68.7053	589
-2.7573	68.5887	588
-1.47863	68.2387	585
-0.212198	67.6555	580
1.03441	67.1889	576
2.28352	67.3055	577
3.51859	67.0723	575
4.76158	67.0723	575
6.00456	67.0723	575
7.26015	67.1889	576
8.57913	67.7721	581
9.9028	68.2387	585
11.2247	68.5887	588
12.6658	69.5218	596
14.118	70.3384	603
15.396	70.2217	602
16.5587	69.6385	597
17.7296	69.1719	593
19.1077	69.5218	596
20.3618	69.4052	595
21.3934	68.5887	588
22.6259	68.472	587
23.6913	67.8888	582
24.9494	67.8888	582
26.3426	68.2387	585
27.4657	67.8888	582
28.6744	67.7721	581
30.188	68.3554	586
31.6694	68.822	590
32.8332	68.5887	588
34.0463	68.472	587
35.0144	67.8888	582
36.3971	68.1221	584
37.7886	68.3554	586
38.7221	67.7721	581
39.978	67.7721	581
41.6598	68.472	587
43.0019	68.5887	588
44.5741	69.0553	592
46.1637	69.5218	596
46.7355	68.472	587
48.0045	68.472	587
49.2734	68.472	587
50.6284	68.5887	588
51.8995	68.5887	588
53.0802	68.472	587
54.2565	68.3554	586
55.1443	67.8888	582
55.1425	66.3724	569
56.1744	66.1391	567
57.5013	66.2557	568
58.8326	66.3724	569
60.0626	66.3724	569
61.6158	66.7223	572
63.1819	67.0723	575
64.761	67.4222	578
65.6679	67.0723	575
65.8636	66.0224	566
67.0871	66.0224	566
68.552	66.2557	568
69.4113	65.9058	565
70.6327	65.9058	565
71.4725	65.5558	562
73.2048	66.0224	566
74.6913	66.2557	568
75.6518	66.0224	566
76.6037	65.7891	564
77.9609	65.9058	565
79.4626	66.1391	567
81.5421	66.839	573
82.6363	66.7223	572
84.4593	67.1889	576
86.746	68.0054	583
88.3082	68.2387	585
88.8072	67.6555	580
88.6635	66.6057	571
89.7404	66.489	570
91.4514	66.839	573
93.3371	67.3055	577
94.7483	67.4222	578
95.8317	67.3055	577
97.752	67.7721	581
98.4968	67.4222	578
98.7108	66.7223	572
98.3747	65.6725	563
99.4149	65.5558	562
101.883	66.3724	569
104.744	67.4222	578
106.544	67.7721	581
107.985	67.8888	582
110.745	68.822	590
112.4	69.0553	592
113.296	68.822	590
113.6	68.2387	585
113.49	67.4222	578
113.35	66.6057	571
113.782	66.1391	567
115.413	66.3724	569
117.463	66.839	573
119.945	67.5388	579
121.615	67.7721	581
122.025	67.3055	577
122.845	67.0723	575
124.736	67.4222	578
125.549	67.1889	576
126.134	66.839	573
126.039	66.1391	567
126.816	65.9058	565
128.717	66.2557	568
130.402	66.489	570
131.865	66.6057	571
132.167	66.1391	567
131.511	65.2059	559
132.957	65.3225	560
135.844	66.1391	567
136.345	65.7891	564
136.832	65.4392	561
137.553	65.2059	559
139.01	65.3225	560
140.721	65.5558	562
142.441	65.7891	564
141.113	64.6227	554
142.567	64.7393	555
142.99	64.3894	552
143.4	64.0394	549
145.64	64.506	553
148.694	65.3225	560
154.723	67.4222	578
150.845	65.2059	559
152.598	65.4392	561
154.907	65.9058	565
157.234	66.3724	569
159.021	66.6057	571
158.291	65.7891	564
159.793	65.9058	565
161.584	66.1391	567
162.81	66.1391	567
162.878	65.6725	563
162.346	64.9726	557
162.376	64.506	553
163.867	64.6227	554
164.469	64.3894	552
164.162	63.8061	547
166.251	64.1561	550
168.353	64.506	553
169.549	64.506	553
170.435	64.3894	552
172.561	64.7393	555
173.448	64.6227	554
174.645	64.6227	554
176.478	64.8559	556
180.875	66.0224	566
183.386	66.489	570
186.238	67.0723	575
185.85	66.489	570
184.457	65.5558	562
183.029	64.6227	554
185.889	65.2059	559
188.436	65.6725	563
189.316	65.5558	562
189.853	65.3225	560
190.722	65.2059	559
194.678	66.1391	567
197.631	66.7223	572
198.172	66.489	570
198.705	66.2557	568
199.228	66.0224	566
198.327	65.3225	560
198.112	64.8559	556
197.522	64.2727	551
199.434	64.506	553
202.806	65.2059	559
206.205	65.9058	565
205.223	65.2059	559
205.693	64.9726	557
207.64	65.2059	559
213.332	66.6057	571
218.324	67.7721	581
222.225	68.5887	588
223.877	68.7053	589
221.327	67.5388	579
217.581	66.0224	566
215.326	64.9726	557
215.364	64.6227	554
215.779	64.3894	552
217.366	64.506	553
217.375	64.1561	550
220.154	64.6227	554
218.555	63.8061	547
220.54	64.0394	549
221.323	63.9228	548
222.508	63.9228	548
224.917	64.2727	551
225.698	64.1561	550
226.474	64.0394	549
227.661	64.0394	549
228.431	63.9228	548
228.359	63.5728	545
227.852	63.1062	541
229.445	63.2229	542
231.468	63.4562	544
233.927	63.8061	547
234.249	63.5728	545
235.428	63.5728	545
239.21	64.2727	551
239.965	64.1561	550
241.593	64.2727	551
242.343	64.1561	550
243.089	64.0394	549
244.721	64.1561	550
246.804	64.3894	552
248.447	64.506	553
249.191	64.3894	552
251.745	64.7393	555
251.577	64.3894	552
253.228	64.506	553
253.044	64.1561	550
253.77	64.0394	549
253.564	63.6895	546
257.544	64.3894	552
260.612	64.8559	556
262.285	64.9726	557
262.07	64.6227	554
264.218	64.8559	556
263.987	64.506	553
263.265	64.0394	549
262.525	63.5728	545
266.122	64.1561	550
268.283	64.3894	552
269.476	64.3894	552
271.16	64.506	553
270.878	64.1561	550
268.109	63.2229	542
267.294	62.7563	538
269.954	63.1062	541
276.135	64.2727	551
278.332	64.506	553
278.517	64.2727	551
275.647	63.3395	543
277.84	63.5728	545
280.042	63.8061	547
283.281	64.2727	551
287.054	64.8559	556
289.811	65.2059	559
292.061	65.4392	561
292.228	65.2059	559
292.911	65.0892	558
294.645	65.2059	559
299.558	66.0224	566
302.376	66.3724	569
301.471	65.9058	565
299.478	65.2059	559
300.687	65.2059	559
300.815	64.9726	557
301.477	64.8559	556
301.59	64.6227	554
302.241	64.506	553
302.888	64.3894	552
307.386	65.0892	558
308.039	64.9726	557
306.468	64.3894	552
310.448	64.9726	557
314.449	65.5558	562
317.911	66.0224	566
320.262	66.2557	568
320.358	66.0224	566
320.445	65.7891	564
321.664	65.7891	564
322.884	65.7891	564
321.804	65.3225	560
322.438	65.2059	559
321.909	64.8559	556
323.111	64.8559	556
322.563	64.506	553
322.002	64.1561	550
320.253	63.5728	545
337.945	66.839	573
340.96	67.1889	576
340.423	66.839	573
338.084	66.1391	567
341.703	66.6057	571
342.937	66.6057	571
341.761	66.1391	567
344.801	66.489	570
342.998	65.9058	565
335.69	64.2727	551
339.938	64.8559	556
344.821	65.5558	562
347.883	65.9058	565
349.723	66.0224	566
349.086	65.6725	563
350.303	65.6725	563
350.896	65.5558	562
350.858	65.3225	560
-479.382	77.2258	650
-473.565	76.5129	644
-467.773	75.8001	638
-462.008	75.0872	632
-460.642	75.0872	632
-457.822	74.8496	630
-454.287	74.4932	627
-452.931	74.4932	627
-450.136	74.2556	625
-444.476	73.5427	619
-443.138	73.5427	619
-441.8	73.5427	619
-438.327	73.1863	616
-436.996	73.1863	616
-437.786	73.5427	619
-437.858	73.7803	621
-436.515	73.7803	621
-437.275	74.1367	624
-426.146	72.4734	610
-424.131	72.3546	609
-417.26	71.4041	601
-413.192	70.9289	597
-411.902	70.9289	597
-411.987	71.1665	599
-414.12	71.7606	604
-414.865	72.117	607
-415.597	72.4734	610
-410.203	71.7606	604
-406.19	71.2853	600
-404.893	71.2853	600
-403.596	71.2853	600
-405.651	71.8794	605
-407.685	72.4734	610
-408.365	72.8299	613
-408.368	73.0675	615
-408.362	73.3051	617
-406.368	73.1863	616
-405.037	73.1863	616
-403.705	73.1863	616
-400.414	72.8299	613
-396.485	72.3546	609
-397.764	72.8299	613
-394.498	72.4734	610
-393.18	72.4734	610
-395.715	73.1863	616
-396.945	73.6615	620
-395.604	73.6615	620
-394.264	73.6615	620
-392.924	73.6615	620
-392.215	73.7803	621
-388.355	73.3051	617
-387.649	73.4239	618
-386.313	73.4239	618
-381.239	72.711	612
-377.433	72.2358	608
-376.737	72.3546	609
-378.503	72.9487	614
-378.404	73.1863	616
-377.073	73.1863	616
-376.961	73.4239	618
-374.41	73.1863	616
-371.261	72.8299	613
-369.332	72.711	612
-368.611	72.8299	613
-370.281	73.4239	618
-367.751	73.1863	616
-366.42	73.1863	616
-367.459	73.6615	620
-368.481	74.1367	624
-371.25	74.9684	631
-373.403	75.6813	637
-373.778	76.0377	640
-368.904	75.3248	634
-365.214	74.8496	630
-363.853	74.8496	630
-362.491	74.8496	630
-360.556	74.7308	629
-362.051	75.3248	634
-360.681	75.3248	634
-360.444	75.5625	636
-338.744	71.2853	600
-338.572	71.523	602
-339.512	71.9982	606
-344.34	73.3051	617
-341.339	72.9487	614
-332.259	71.2853	600
-328.204	70.6913	595
-325.269	70.3349	592
-323.442	70.2161	591
-325.435	70.9289	597
-326.86	71.523	602
-328.803	72.2358	608
-324.796	71.6418	603
-323.492	71.6418	603
-322.723	71.7606	604
-319.289	71.2853	600
-315.342	70.6913	595
-310.361	69.8596	588
-310.141	70.0973	590
-312.007	70.8101	596
-314.368	71.6418	603
-316.698	72.4734	610
-315.38	72.4734	610
-312.002	71.9982	606
-309.153	71.6418	603
-308.36	71.7606	604
-308.072	71.9982	606
-308.28	72.3546	609
-307.468	72.4734	610
-305.145	72.2358	608
-301.332	71.6418	603
-299.531	71.523	602
-296.248	71.0477	598
-294.462	70.9289	597
-292.681	70.8101	596
-289.437	70.3349	592
-288.157	70.3349	592
-287.846	70.5725	594
-288.01	70.9289	597
-287.199	71.0477	598
-286.863	71.2853	600
-284.138	70.9289	597
-282.848	70.9289	597
-281.557	70.9289	597
-279.328	70.6913	595
-276.172	70.2161	591
-273.034	69.7408	587
-273.617	70.2161	591
-271.418	69.9784	589
-270.145	69.9784	589
-269.328	70.0973	590
-267.598	69.9784	589
-266.325	69.9784	589
-264.151	69.7408	587
-261.987	69.5032	585
-259.385	69.1468	582
-257.684	69.028	581
-259.517	69.8596	588
-261.32	70.6913	595
-264.405	71.8794	605
-267.011	72.9487	614
-266.116	73.0675	615
-261.773	72.2358	608
-256.174	71.0477	598
-250.193	69.7408	587
-249.348	69.8596	588
-250.609	70.5725	594
-251.843	71.2853	600
-250.964	71.4041	601
-249.249	71.2853	600
-247.126	71.0477	598
-244.6	70.6913	595
-246.585	71.6418	603
-245.281	71.6418	603
-243.169	71.4041	601
-240.662	71.0477	598
-238.569	70.8101	596
-237.678	70.9289	597
-237.972	71.4041	601
-236.673	71.4041	601
-236.157	71.6418	603
-235.632	71.8794	605
-234.324	71.8794	605
-231.861	71.523	602
-230.56	71.523	602
-228.877	71.4041	601
-226.821	71.1665	599
-224.397	70.8101	596
-223.482	70.9289	597
-224.053	71.523	602
-224.972	72.2358	608
-224.393	72.4734	610
-220.514	71.6418	603
-218.847	71.523	602
-214.655	70.5725	594
-211.575	69.9784	589
-211.73	70.4537	593
-211.868	70.9289	597
-210.577	70.9289	597
-208.936	70.8101	596
-207.648	70.8101	596
-207.052	71.0477	598
-204.727	70.6913	595
-202.073	70.2161	591
-201.135	70.3349	592
-202.556	71.2853	600
-201.594	71.4041	601
-199.295	71.0477	598
-197.009	70.6913	595
-195.394	70.5725	594
-194.764	70.8101	596
-195.098	71.4041	601
-194.122	71.523	602
-191.859	71.1665	599
-189.928	70.9289	597
-189.902	71.4041	601
-188.603	71.4041	601
-186.368	71.0477	598
-182.909	70.2161	591
-180.71	69.8596	588
-180.049	70.0973	590
-179.986	70.5725	594
-178.701	70.5725	594
-177.716	70.6913	595
-177.023	70.9289	597
-176.321	71.1665	599
-174.15	70.8101	596
