-144.351	67.5302	521
-142.125	67.0117	517
-141.553	67.2709	519
-142.055	68.0486	525
-141.725	68.4375	528
-140.85	68.5671	529
-139.178	68.3079	527
-136.729	67.6598	522
-135.601	67.6598	522
-133.184	67.0117	517
-132.067	67.0117	517
-132.469	67.7894	523
-131.841	68.0486	525
-130.955	68.1782	526
-130.558	68.5671	529
-130.393	69.0856	533
-129.241	69.0856	533
-127.368	68.6967	530
-124.555	67.7894	523
-123.424	67.7894	523
-122.527	67.919	524
-120.7	67.5302	521
-117.967	66.6228	514
-119.357	68.0486	525
-117.771	67.7894	523
-117.31	68.1782	526
-117.498	68.9559	532
-117.004	69.3448	535
-116.714	69.8633	539
-115.12	69.604	537
-112.049	68.4375	528
-110.277	68.0486	525
-109.558	68.3079	527
-107.39	67.6598	522
-106.058	67.5302	521
-105.335	67.7894	523
-104.404	67.919	524
-102.68	67.5302	521
-102.138	67.919	524
-101.391	68.1782	526
-100.254	68.1782	526
-99.1168	68.1782	526
-98.5386	68.5671	529
-97.5792	68.6967	530
-95.7057	68.1782	526
-94.7484	68.3079	527
-93.0763	67.919	524
-91.7681	67.7894	523
-89.771	67.1413	518
-89.3358	67.6598	522
-89.0523	68.3079	527
-88.2467	68.5671	529
-87.1031	68.5671	529
-86.1221	68.6967	530
-84.4954	68.3079	527
-82.8816	67.919	524
-81.9049	68.0486	525
-80.3085	67.6598	522
-79.3317	67.7894	523
-78.3507	67.919	524
-77.3653	68.0486	525
-76.2304	68.0486	525
-74.5233	67.5302	521
-72.6927	66.8821	516
-71.2998	66.6228	514
-69.779	66.234	511
-68.1368	65.7155	507
-67.5698	66.234	511
-66.9854	66.7525	515
-66.3838	67.2709	519
-65.5133	67.5302	521
-64.6342	67.7894	523
-63.6251	67.919	524
-62.1346	67.5302	521
-61.1254	67.6598	522
-60.3418	68.0486	525
-58.9813	67.7894	523
-57.7402	67.6598	522
-56.3948	67.4005	520
-54.7393	66.7525	515
-53.2095	66.234	511
-52.0029	66.1044	510
-50.9004	66.1044	510
-49.8956	66.234	511
-48.8864	66.3636	512
-48.1529	66.8821	516
-47.4021	67.4005	520
-46.011	67.0117	517
-44.8066	66.8821	516
-43.7758	67.0117	517
-43.1533	67.7894	523
-41.7816	67.4005	520
-40.423	67.0117	517
-39.2294	66.8821	516
-38.3355	67.2709	519
-37.2853	67.4005	520
-36.2307	67.5302	521
-35.3066	67.919	524
-34.1739	67.919	524
-32.915	67.6598	522
-31.4821	67.0117	517
-30.4233	67.1413	518
-29.3601	67.2709	519
-28.1837	67.1413	518
-27.0117	67.0117	517
-25.5936	66.234	511
-24.3931	65.9748	509
-23.4758	66.4932	513
-22.7157	67.5302	521
-21.6309	67.6598	522
-20.5025	67.6598	522
-19.2256	67.1413	518
-18.3854	68.1782	526
-17.2812	68.3079	527
-16.1419	68.3079	527
-14.9173	67.919	524
-13.7057	67.5302	521
-12.5553	67.4005	520
-11.4751	67.6598	522
-10.3467	67.6598	522
-9.27128	68.0486	525
-8.13638	68.0486	525
-6.98814	67.919	524
-5.82188	67.5302	521
-4.65958	67.0117	517
-3.53512	66.8821	516
-2.41967	66.8821	516
-1.30928	67.1413	518
-0.189881	67.2709	519
0.942824	68.0486	525
2.06981	67.7894	523
3.21263	68.0486	525
4.34753	68.0486	525
5.43021	67.4005	520
6.59212	67.7894	523
7.81129	68.5671	529
8.95484	68.5671	529
10.0411	68.1782	526
11.1782	68.1782	526
12.2684	67.919	524
13.3756	67.7894	523
14.3952	67.2709	519
15.278	66.234	511
16.4146	66.3636	512
17.4872	66.234	511
18.4463	65.7155	507
19.5809	65.8451	508
20.9233	66.6228	514
22.2487	67.2709	519
22.9654	66.1044	510
23.9263	65.7155	507
25.0223	65.7155	507
26.0152	65.4563	505
27.1069	65.4563	505
28.3661	65.8451	508
29.7542	66.4932	513
30.8632	66.4932	513
31.9098	66.3636	512
32.8232	65.9748	509
33.7902	65.7155	507
34.8174	65.5859	506
35.9112	65.5859	506
37.2976	66.1044	510
38.7765	66.7525	515
39.9672	66.8821	516
40.5254	65.9748	509
41.135	65.1971	503
42.2223	65.1971	503
43.7402	65.8451	508
45.1914	66.3636	512
46.6599	66.8821	516
47.8679	67.0117	517
48.8908	66.8821	516
49.2309	65.8451	508
50.0319	65.4563	505
51.1235	65.4563	505
52.7322	66.1044	510
54.1513	66.4932	513
55.1526	66.3636	512
56.589	66.7525	515
57.8144	66.8821	516
58.8156	66.7525	515
60.8598	67.7894	523
62.583	68.4375	528
63.3623	68.0486	525
63.1459	66.6228	514
64.132	66.4932	513
65.3681	66.6228	514
66.3499	66.4932	513
66.6699	65.7155	507
66.8302	64.8082	500
66.9603	63.9009	493
68.578	64.4194	497
69.9327	64.6786	499
72.0075	65.5859	506
73.2458	65.7155	507
74.4884	65.8451	508
76.4793	66.6228	514
78.4962	67.4005	520
80.3858	68.0486	525
81.0549	67.6598	522
81.2387	66.8821	516
81.7157	66.3636	512
83.1461	66.6228	514
84.585	66.8821	516
84.87	66.234	511
85.4699	65.8451	508
86.5681	65.8451	508
88.5291	66.4932	513
89.8128	66.6228	514
91.8084	67.2709	519
93.2884	67.5302	521
94.0522	67.2709	519
94.8074	67.0117	517
93.1419	65.0675	502
94.2271	65.0675	502
94.9325	64.8082	500
97.7416	65.9748	509
99.6187	66.4932	513
101.513	67.0117	517
102.432	66.8821	516
102.745	66.3636	512
102.838	65.7155	507
103.729	65.5859	506
106.48	66.6228	514
107.8	66.7525	515
107.856	66.1044	510
107.677	65.3267	504
107.471	64.549	498
109.202	64.9378	501
112.266	66.1044	510
111.812	65.1971	503
114.246	65.9748	509
116.026	66.3636	512
116.447	65.9748	509
116.854	65.5859	506
117.715	65.4563	505
118.101	65.0675	502
118.237	64.549	498
119.553	64.6786	499
122.082	65.4563	505
123.905	65.8451	508
125.742	66.234	511
126.846	66.234	511
128.702	66.6228	514
132.339	67.919	524
133.726	68.0486	525
135.375	68.3079	527
135.478	67.7894	523
134.519	66.7525	515
133.789	65.8451	508
137.808	67.2709	519
139.465	67.5302	521
140.591	67.5302	521
141.717	67.5302	521
143.118	67.6598	522
143.141	67.1413	518
141.197	65.7155	507
140.89	65.0675	502
142.541	65.3267	504
144.77	65.8451	508
145.581	65.7155	507
146.098	65.4563	505
147.19	65.4563	505
148.282	65.4563	505
149.373	65.4563	505
152.253	66.234	511
153.057	66.1044	510
153.858	65.9748	509
154.653	65.8451	508
154.525	65.3267	504
153.145	64.2897	496
154.839	64.549	498
155.289	64.2897	496
155.731	64.0305	494
156.799	64.0305	494
158.825	64.4194	497
159.256	64.1601	495
160.002	64.0305	494
161.396	64.1601	495
163.451	64.549	498
164.528	64.549	498
167.599	65.3267	504
170.028	65.8451	508
169.778	65.3267	504
169.512	64.8082	500
169.91	64.549	498
170.643	64.4194	497
172.063	64.549	498
174.53	65.0675	502
176.665	65.4563	505
178.109	65.5859	506
177.078	64.8082	500
175.308	63.7713	492
176.013	63.6417	491
177.796	63.9009	493
182.49	65.1971	503
181.387	64.4194	497
181.727	64.1601	495
183.905	64.549	498
189.439	66.1044	510
193.157	67.0117	517
195.026	67.2709	519
194.636	66.7525	515
193.089	65.8451	508
193.04	65.4563	505
192.594	64.9378	501
193.677	64.9378	501
195.149	65.0675	502
196.625	65.1971	503
198.105	65.3267	504
198.009	64.9378	501
200.682	65.4563	505
203.771	66.1044	510
203.669	65.7155	507
203.553	65.3267	504
204.236	65.1971	503
204.916	65.0675	502
205.59	64.9378	501
206.261	64.8082	500
208.586	65.1971	503
209.256	65.0675	502
208.246	64.4194	497
209.321	64.4194	497
209.125	64.0305	494
210.619	64.1601	495
212.116	64.2897	496
213.618	64.4194	497
216.421	64.9378	501
217.938	65.0675	502
219.023	65.0675	502
219.67	64.9378	501
220.753	64.9378	501
221.393	64.8082	500
222.029	64.6786	499
222.213	64.4194	497
222.389	64.1601	495
224.362	64.4194	497
225.89	64.549	498
225.599	64.1601	495
227.127	64.2897	496
228.199	64.2897	496
229.734	64.4194	497
232.201	64.8082	500
233.282	64.8082	500
233.894	64.6786	499
234.502	64.549	498
234.633	64.2897	496
235.23	64.1601	495
237.732	64.549	498
237.849	64.2897	496
237.958	64.0305	494
239.51	64.1601	495
242.524	64.6786	499
243.603	64.6786	499
243.701	64.4194	497
245.268	64.549	498
247.333	64.8082	500
251.395	65.5859	506
253.986	65.9748	509
253.082	65.4563	505
253.167	65.1971	503
253.749	65.0675	502
254.834	65.0675	502
256.429	65.1971	503
258.54	65.4563	505
259.118	65.3267	504
259.691	65.1971	503
258.704	64.6786	499
260.824	64.9378	501
264.521	65.5859	506
266.14	65.7155	507
266.709	65.5859	506
267.803	65.5859	506
265.708	64.8082	500
262.52	63.7713	492
263.584	63.7713	492
264.109	63.6417	491
266.791	64.0305	494
266.775	63.7713	492
267.838	63.7713	492
270.541	64.1601	495
274.904	64.9378	501
278.19	65.4563	505
279.835	65.5859	506
279.263	65.1971	503
281.465	65.4563	505
281.438	65.1971	503
279.155	64.4194	497
277.974	63.9009	493
276.776	63.3824	489
274.992	62.7344	484
276.609	62.864	485
284.527	64.4194	497
289.049	65.1971	503
290.136	65.1971	503
291.224	65.1971	503
293.473	65.4563	505
293.398	65.1971	503
292.144	64.6786	499
292.635	64.549	498
293.122	64.4194	497
293.604	64.2897	496
293.488	64.0305	494
296.345	64.4194	497
295.026	63.9009	493
296.692	64.0305	494
297.76	64.0305	494
298.828	64.0305	494
302.324	64.549	498
304.01	64.6786	499
304.477	64.549	498
304.326	64.2897	496
306.014	64.4194	497
305.235	64.0305	494
306.303	64.0305	494
306.126	63.7713	492
307.814	63.9009	493
310.76	64.2897	496
-402.681	71.9508	546
-405.177	72.6096	551
-407.652	73.2685	556
-410.105	73.9274	561
-405.248	73.2685	556
-404.046	73.2685	556
-399.946	72.7414	552
-396.586	72.3461	549
-393.238	71.9508	546
-389.186	71.4236	542
-390.878	71.9508	546
-389.698	71.9508	546
-391.364	72.4779	550
-389.465	72.3461	549
-388.278	72.3461	549
-387.092	72.3461	549
-385.905	72.3461	549
-380.513	71.5554	543
-380.737	71.819	545
-383.041	72.4779	550
-386.018	73.2685	556
-384.124	73.1368	555
-381.544	72.8732	553
-380.349	72.8732	553
-377.782	72.6096	551
-376.591	72.6096	551
-377.444	73.005	554
-378.963	73.5321	558
-377.756	73.5321	558
-373.176	72.8732	553
-371.981	72.8732	553
-367.433	72.2143	548
-362.238	71.4236	542
-359.068	71.0283	539
-357.239	70.8965	538
-357.399	71.1601	540
-357.551	71.4236	542
-359.01	71.9508	546
-357.83	71.9508	546
-360.568	72.7414	552
-360.026	72.8732	553
-357.533	72.6096	551
-355.695	72.4779	550
-355.151	72.6096	551
-353.317	72.4779	550
-352.128	72.4779	550
-347.749	71.819	545
-346.571	71.819	545
-344.125	71.5554	543
-346.109	72.2143	548
-350.59	73.4003	557
-350.64	73.6639	559
-348.182	73.4003	557
-346.977	73.4003	557
-342.669	72.7414	552
-337.765	71.9508	546
-335.968	71.819	545
-333.561	71.5554	543
-330.551	71.1601	540
-329.384	71.1601	540
-330.647	71.6872	544
-330.683	71.9508	546
-333.123	72.7414	552
-334.937	73.4003	557
-334.931	73.6639	559
-319.992	70.633	536
-320.023	70.8965	538
-319.452	71.0283	539
-315.925	70.5012	535
-308.885	69.1834	525
-306.578	68.9199	523
-311.287	70.2376	533
-313.626	71.0283	539
-312.461	71.0283	539
-310.141	70.7648	537
-304.377	69.7105	529
-302.087	69.447	527
-300.948	69.447	527
-302.653	70.1059	532
-304.337	70.7648	537
-303.741	70.8965	538
-302.578	70.8965	538
-299.734	70.5012	535
-298.019	70.3694	534
-299.644	71.0283	539
-304.571	72.4779	550
-305.588	73.005	554
-303.841	72.8732	553
-300.457	72.3461	549
-297.089	71.819	545
-294.282	71.4236	542
-292.029	71.1601	540
-290.862	71.1601	540
-289.694	71.1601	540
-288.527	71.1601	540
-286.295	70.8965	538
-286.722	71.2919	541
-286.081	71.4236	542
-284.383	71.2919	541
-280.596	70.633	536
-279.959	70.7648	537
-280.875	71.2919	541
-279.706	71.2919	541
-279.051	71.4236	542
-278.905	71.6872	544
-279.26	72.0825	547
-280.111	72.6096	551
-279.426	72.7414	552
-275.713	72.0825	547
-271.519	71.2919	541
-265.852	70.1059	532
-263.209	69.7105	529
-263.057	69.9741	531
-264.375	70.633	536
-264.69	71.0283	539
-264.502	71.2919	541
-262.359	71.0283	539
-262.648	71.4236	542
-262.923	71.819	545
-263.666	72.3461	549
-262.958	72.4779	550
-259.389	71.819	545
-255.842	71.1601	540
-252.317	70.5012	535
-250.691	70.3694	534
-251.405	70.8965	538
-251.638	71.2919	541
-248.616	70.7648	537
-246.534	70.5012	535
-245.836	70.633	536
-245.134	70.7648	537
-244.882	71.0283	539
-245.977	71.6872	544
-244.351	71.5554	543
-243.625	71.6872	544
-242.449	71.6872	544
-239.499	71.1601	540
-237.449	70.8965	538
-235.408	70.633	536
-233.812	70.5012	535
-233.96	70.8965	538
-233.23	71.0283	539
-233.357	71.4236	542
-230.471	70.8965	538
-228.03	70.5012	535
-226.025	70.2376	533
-224.451	70.1059	532
-222.881	69.9741	531
-222.986	70.3694	534
-221.416	70.2376	533
-218.611	69.7105	529
-215.412	69.0516	524
-215.506	69.447	527
-212.74	68.9199	523
-209.586	68.261	518
-208.869	68.3928	519
-208.948	68.7881	522
-207.023	68.5245	520
-205.899	68.5245	520
-203.987	68.261	518
-204.826	68.9199	523
-204.085	69.0516	524
-202.177	68.7881	522
-200.279	68.5245	520
-198.771	68.3928	519
-199.173	68.9199	523
-198.042	68.9199	523
-196.159	68.6563	521
-196.155	69.0516	524
-195.023	69.0516	524
-195.37	69.5788	528
-193.125	69.1834	525
-190.162	68.5245	520
-188.674	68.3928	519
-187.914	68.5245	520
-192.537	70.633	536
-193.163	71.2919	541
-190.219	70.633	536
-186.592	69.7105	529
-183.695	69.0516	524
-181.517	68.6563	521
-179.699	68.3928	519
-178.577	68.3928	519
-176.771	68.1292	517
-174.974	67.8656	515
-172.848	67.4703	512
-171.406	67.3385	511
-170.967	67.6021	513
-170.852	67.9974	516
-170.394	68.261	518
-168.948	68.1292	517
-167.506	67.9974	516
-166.068	67.8656	515
-164.634	67.7339	514
-163.841	67.8656	515
-163.36	68.1292	517
-162.87	68.3928	519
-162.994	68.9199	523
-162.173	69.0516	524
-161.348	69.1834	525
-160.518	69.3152	526
-158.775	69.0516	524
-156.74	68.6563	521
-154.718	68.261	518
-155.377	69.0516	524
-155.127	69.447	527
-153.404	69.1834	525
-149.948	68.1292	517
-146.24	66.9432	508
-144.57	66.6796	506
-144.044	66.9432	508
-144.352	67.6021	513
-143.523	67.7339	514
-141.303	67.2067	510
-139.101	66.6796	506
-138.553	66.9432	508
-138.808	67.6021	513
-137.967	67.7339	514
-136.59	67.6021	513
-135.217	67.4703	512
-134.372	67.6021	513
-131.964	66.9432	508
-129.578	66.2843	503
-129.001	66.5479	505
-129.429	67.3385	511
-129.078	67.7339	514
-127.469	67.4703	512
-126.609	67.6021	513
-126.234	67.9974	516
-126.089	68.5245	520
-124.243	68.1292	517
-120.506	66.6796	506
-118.232	66.0208	501
-117.851	66.4161	504
-116.298	66.1525	502
-116.59	66.9432	508
-116.174	67.3385	511
-115.52	67.6021	513
-116.195	68.6563	521
-115.289	68.7881	522
-115.036	69.3152	526
-114.548	69.7105	529
-113.19	69.5788	528
-110.988	68.9199	523
-109.647	68.7881	522
-108.727	68.9199	523
-107.185	68.6563	521
-105.448	68.261	518
-103.522	67.7339	514
-101.017	66.8114	507
-99.7234	66.6796	506
-100.189	67.7339	514
-100.234	68.5245	520
-98.7291	68.261	518
-97.4209	68.1292	517
-95.9308	67.8656	515
-93.1605	66.6796	506
-92.2486	66.8114	507
-92.2313	67.6021	513
-91.8329	68.1292	517
-90.1889	67.7339	514
-88.5579	67.3385	511
-87.6244	67.4703	512
-87.0245	67.8656	515
-86.7453	68.5245	520
-86.1152	68.9199	523
-85.1471	69.0516	524
-83.854	68.9199	523
-82.2489	68.5245	520
-80.8128	68.261	518
-78.9238	67.6021	513
-77.3598	67.2067	510
-76.7059	67.6021	513
-74.7128	66.8114	507
-72.8908	66.1525	502
-70.9474	65.3619	496
-70.7204	66.1525	502
-70.6062	67.075	509
-69.0963	66.6796	506
-67.7337	66.4161	504
-66.2475	66.0208	501
-64.7742	65.6254	498
-63.8256	65.7572	499
-64.2559	67.3385	511
-63.522	67.7339	514
-62.168	67.4703	512
-61.419	67.8656	515
-60.657	68.261	518
-58.9626	67.6021	513
-57.1769	66.8114	507
-56.1916	66.9432	508
-55.4188	67.3385	511
-54.1016	67.075	509
-52.8971	66.9432	508
-51.9009	67.075	509
-50.601	66.8114	507
-49.505	66.8114	507
-48.5045	66.9432	508
-47.593	67.2067	510
-46.217	66.8114	507
-44.5871	66.0208	501
-43.5909	66.1525	502
-42.7597	66.5479	505
-41.8331	66.8114	507
-40.8175	66.9432	508
-39.7193	66.9432	508
-39.0013	67.6021	513
-38.04	67.8656	515
-36.9985	67.9974	516
-35.883	67.9974	516
-34.7002	67.8656	515
-33.326	67.3385	511
-31.9692	66.8114	507
-30.1425	65.2301	495
-29.1312	65.3619	496
-28.2852	65.889	500
-27.422	66.4161	504
-26.5415	66.9432	508
-25.243	66.4161	504
-23.9139	65.7572	499
-22.6979	65.3619	496
-21.7129	65.6254	498
-20.7607	66.0208	501
-20.0704	67.3385	511
-19.04	67.6021	513
-18.0009	67.8656	515
-16.986	68.261	518
-15.9582	68.6563	521
-14.6896	67.9974	516
-13.4952	67.6021	513
-12.338	67.3385	511
-11.0794	66.4161	504
-10.0296	66.6796	506
-8.93575	66.6796	506
-7.87291	66.9432	508
-6.81477	67.3385	511
-5.74366	67.7339	514
-4.6055	67.3385	511
-3.50086	67.3385	511
-2.38685	67.075	509
-1.28401	66.9432	508
-0.185856	66.9432	508
0.914091	67.075	509
2.00649	66.8114	507
3.10248	66.8114	507
4.12394	65.6254	498
5.22136	65.889	500
6.35263	66.4161	504
7.47167	66.6796	506
8.58243	66.8114	507
9.64024	66.5479	505
10.6681	66.1525	502
11.7299	66.0208	501
12.8641	66.2843	503
14.0346	66.6796	506
15.0687	66.4161	504
16.062	66.0208	501
17.3161	66.6796	506
18.3736	66.5479	505
19.234	65.7572	499
20.2312	65.4936	497
21.3056	65.4936	497
22.335	65.3619	496
23.2184	64.8347	492
24.43	65.2301	495
25.4486	65.0983	494
26.3017	64.5712	490
27.2493	64.3076	488
28.3622	64.4394	489
29.5998	64.8347	492
31.0996	65.7572	499
32.6297	66.6796	506
33.5236	66.2843	503
34.4733	66.0208	501
35.5563	66.0208	501
36.9319	66.5479	505
38.3247	67.075	509
39.5025	67.2067	510
40.5254	67.075	509
41.2168	66.4161	504
42.3063	66.4161	504
43.3958	66.4161	504
44.7501	66.8114	507
46.2982	67.4703	512
47.0346	66.9432	508
47.9433	66.6796	506
48.3587	65.7572	499
49.0411	65.2301	495
49.605	64.5712	490
50.3541	64.1759	487
51.7235	64.5712	490
53.2136	65.0983	494
54.6112	65.4936	497
56.1337	66.0208	501
57.4451	66.2843	503
59.1143	66.9432	508
59.5013	66.1525	502
59.983	65.4936	497
61.9174	66.4161	504
63.2569	66.6796	506
63.4605	65.7572	499
64.2805	65.4936	497
65.0919	65.2301	495
66.1619	65.2301	495
67.5036	65.4936	497
68.992	65.889	500
70.0728	65.889	500
71.4383	66.1525	502
72.379	66.0208	501
73.462	66.0208	501
74.6938	66.1525	502
76.3828	66.6796	506
77.936	67.075	509
78.881	66.9432	508
78.8771	66.0208	501
78.8429	65.0983	494
79.9108	65.0983	494
80.8148	64.9665	493
82.3788	65.3619	496
83.7875	65.6254	498
84.6936	65.4936	497
86.2857	65.889	500
87.1918	65.7572	499
90.2163	67.2067	510
91.856	67.6021	513
90.7903	66.0208	501
90.5897	65.0983	494
92.5853	65.7572	499
93.664	65.7572	499
95.1224	66.0208	501
96.0134	65.889	500
97.2884	66.0208	501
98.7642	66.2843	503
100.05	66.4161	504
99.9355	65.6254	498
100.403	65.2301	495
102.499	65.889	500
104.615	66.5479	505
105.916	66.6796	506
105.741	65.889	500
105.113	64.8347	492
106.176	64.8347	492
106.804	64.5712	490
109.404	65.4936	497
111.145	65.889	500
111.553	65.4936	497
113.307	65.889	500
113.93	65.6254	498
115.007	65.6254	498
116.317	65.7572	499
116.925	65.4936	497
117.762	65.3619	496
118.834	65.3619	496
119.664	65.2301	495
121.954	65.889	500
124.019	66.4161	504
125.605	66.6796	506
126.949	66.8114	507
128.045	66.8114	507
129.905	67.2067	510
130.751	67.075	509
130.297	66.2843	503
128.511	64.8347	492
129.048	64.5712	490
131.966	65.4936	497
137.323	67.6021	513
137.623	67.2067	510
137.365	66.5479	505
135.441	65.0983	494
135.127	64.4394	489
135.906	64.3076	488
140.048	65.7572	499
141.692	66.0208	501
143.06	66.1525	502
144.145	66.1525	502
145.231	66.1525	502
145.733	65.889	500
146.814	65.889	500
147.599	65.7572	499
148.975	65.889	500
150.957	66.2843	503
151.742	66.1525	502
152.522	66.0208	501
153.299	65.889	500
152.836	65.2301	495
152.973	64.8347	492
152.784	64.3076	488
153.524	64.1759	487
155.529	64.5712	490
155.949	64.3076	488
156.361	64.0441	486
157.735	64.1759	487
159.766	64.5712	490
161.482	64.8347	492
163.206	65.0983	494
166.269	65.889	500
167.685	66.0208	501
167.42	65.4936	497
166.121	64.5712	490
166.157	64.1759	487
168.927	64.8347	492
169.99	64.8347	492
172.444	65.3619	496
173.517	65.3619	496
172.125	64.4394	489
170.703	63.517	482
168.538	62.331	473
168.485	61.9356	470
170.944	62.4627	474
177.048	64.3076	488
177.008	63.9123	485
178.423	64.0441	486
180.212	64.3076	488
183.124	64.9665	493
183.817	64.8347	492
184.129	64.5712	490
184.81	64.4394	489
186.247	64.5712	490
188.453	64.9665	493
189.903	65.0983	494
190.971	65.0983	494
192.816	65.3619	496
193.889	65.3619	496
194.175	65.0983	494
195.638	65.2301	495
197.105	65.3619	496
198.977	65.6254	498
199.651	65.4936	497
200.726	65.4936	497
201.8	65.4936	497
202.875	65.4936	497
202.307	64.9665	493
202.136	64.5712	490
202.78	64.4394	489
202.587	64.0441	486
204.894	64.4394	489
205.53	64.3076	488
207.008	64.4394	489
208.917	64.703	491
211.261	65.0983	494
212.329	65.0983	494
212.101	64.703	491
213.596	64.8347	492
216.841	65.4936	497
218.354	65.6254	498
219.871	65.7572	499
219.622	65.3619	496
220.249	65.2301	495
220.425	64.9665	493
220.592	64.703	491
221.202	64.5712	490
222.261	64.5712	490
224.688	64.9665	493
225.753	64.9665	493
225.439	64.5712	490
226.036	64.4394	489
227.557	64.5712	490
230.949	65.2301	495
231.551	65.0983	494
231.677	64.8347	492
229.429	63.9123	485
231.903	64.3076	488
232.481	64.1759	487
233.054	64.0441	486
234.105	64.0441	486
235.155	64.0441	486
239.608	64.9665	493
240.185	64.8347	492
240.759	64.703	491
240.343	64.3076	488
241.892	64.4394	489
244.936	64.9665	493
247.499	65.3619	496
249.073	65.4936	497
248.134	64.9665	493
251.221	65.4936	497
253.819	65.889	500
255.919	66.1525	502
257.004	66.1525	502
258.089	66.1525	502
256.077	65.3619	496
254.557	64.703	491
255.618	64.703	491
261.907	66.0208	501
265.615	66.6796	506
266.182	66.5479	505
264.098	65.7572	499
261.988	64.9665	493
260.919	64.4394	489
260.369	64.0441	486
259.806	63.6487	483
261.39	63.7805	484
261.894	63.6487	483
262.939	63.6487	483
266.169	64.1759	487
269.965	64.8347	492
270.478	64.703	491
272.092	64.8347	492
274.821	65.2301	495
278.121	65.7572	499
279.759	65.889	500
278.593	65.3619	496
277.41	64.8347	492
275.644	64.1759	487
272.719	63.2534	480
271.476	62.7263	476
273.077	62.8581	477
283.877	65.0983	494
284.945	65.0983	494
287.75	65.4936	497
287.662	65.2301	495
288.149	65.0983	494
286.289	64.4394	489
286.759	64.3076	488
290.173	64.8347	492
290.053	64.5712	490
291.112	64.5712	490
292.171	64.5712	490
292.632	64.4394	489
290.686	63.7805	484
290.527	63.517	482
291.569	63.517	482
296.253	64.3076	488
301.573	65.2301	495
304.477	65.6254	498
304.94	65.4936	497
305.399	65.3619	496
306.471	65.3619	496
305.063	64.8347	492
304.882	64.5712	490
304.692	64.3076	488
303.868	63.9123	485
-393.831	71.5237	534
-397.088	72.3273	540
-399.587	72.997	545
-399.14	73.1309	546
-394.315	72.4612	541
-393.146	72.4612	541
-389.803	72.0594	538
-385.75	71.5237	534
-384.596	71.5237	534
-382.723	71.3897	533
-383.719	71.7915	536
-382.56	71.7915	536
-382.825	72.0594	538
-381.662	72.0594	538
-381.913	72.3273	540
-382.156	72.5952	542
-374.658	71.3897	533
-373.506	71.3897	533
-375.847	72.0594	538
-379.559	72.997	545
-378.381	72.997	545
-377.202	72.997	545
-372.575	72.3273	540
-371.407	72.3273	540
-369.554	72.1934	539
-371.806	72.8631	544
-375.4	73.8006	551
-374.888	73.9346	552
-372.34	73.6667	550
-368.452	73.1309	546
-367.272	73.1309	546
-360.728	72.0594	538
-356.891	71.5237	534
-355.737	71.5237	534
-355.247	71.6576	535
-354.09	71.6576	535
-354.253	71.9255	537
-354.407	72.1934	539
-353.242	72.1934	539
-354.036	72.5952	542
-351.563	72.3273	540
-351.693	72.5952	542
-350.521	72.5952	542
-351.284	72.997	545
-351.39	73.2649	547
-350.848	73.3988	548
-347.749	72.997	545
-346.571	72.997	545
-340.957	72.0594	538
-344.215	72.997	545
-346.813	73.8006	551
-347.504	74.2025	554
-340.68	72.997	545
-336.387	72.3273	540
-333.358	71.9255	537
-332.197	71.9255	537
-331.653	72.0594	538
-331.104	72.1934	539
-332.387	72.7291	543
-331.213	72.7291	543
-328.216	72.3273	540
-327.655	72.4612	541
-326.485	72.4612	541
-312.086	69.5146	519
-314.559	70.3182	525
-318.798	71.5237	534
-320.617	72.1934	539
-318.86	72.0594	538
-315.925	71.6576	535
-311.238	70.854	529
-309.509	70.72	528
-306.615	70.3182	525
-304.317	70.0503	523
-302.606	69.9164	522
-302.055	70.0503	523
-300.925	70.0503	523
-298.648	69.7825	521
-297.522	69.7825	521
-298.671	70.3182	525
-299.803	70.854	529
-302.047	71.6576	535
-300.89	71.6576	535
-296.933	70.9879	530
-293.554	70.4521	526
-294.085	70.854	529
-301.248	72.8631	544
-303.382	73.6667	550
-302.742	73.8006	551
-297.72	72.8631	544
-295.999	72.7291	543
-292.111	72.0594	538
-287.162	71.1218	531
-283.86	70.5861	527
-282.72	70.5861	527
-282.65	70.854	529
-283.103	71.2558	532
-284.602	71.9255	537
-283.442	71.9255	537
-279.652	71.2558	532
-276.408	70.72	528
-273.182	70.1843	524
-276.202	71.2558	532
-276.086	71.5237	534
-275.962	71.7915	536
-275.828	72.0594	538
-276.708	72.5952	542
-277.569	73.1309	546
-277.402	73.3988	548
-273.697	72.7291	543
-268.006	71.5237	534
-260.355	69.7825	521
-257.239	69.2467	517
-257.112	69.5146	519
-259.936	70.5861	527
-263.707	71.9255	537
-263.524	72.1934	539
-261.386	71.9255	537
-260.225	71.9255	537
-261.959	72.7291	543
-259.824	72.4612	541
-258.177	72.3273	540
-257.485	72.4612	541
-253.947	71.7915	536
-250.43	71.1218	531
-247.874	70.72	528
-248.134	71.1218	531
-248.382	71.5237	534
-245.839	71.1218	531
-242.387	70.4521	526
-241.25	70.4521	526
-238.743	70.0503	523
-238.067	70.1843	524
-235.578	69.7825	521
-235.351	70.0503	523
-237.356	70.9879	530
-237.993	71.5237	534
-236.838	71.5237	534
-234.36	71.1218	531
-234.09	71.3897	533
-232.501	71.2558	532
-229.177	70.5861	527
-225.874	69.9164	522
-225.176	70.0503	523
-226.188	70.72	528
-222.915	70.0503	523
-222.208	70.1843	524
-221.076	70.1843	524
-221.202	70.5861	527
-219.645	70.4521	526
-216.431	69.7825	521
-211.999	68.7109	513
-211.301	68.8449	514
-210.19	68.8449	514
-209.486	68.9788	515
-207.159	68.577	512
-207.259	68.9788	515
-207.347	69.3806	518
-205.829	69.2467	517
-203.919	68.9788	515
-202.018	68.7109	513
-199.734	68.3091	510
-199.8	68.7109	513
-197.53	68.3091	510
-197.583	68.7109	513
-196.474	68.7109	513
-196.126	68.9788	515
-195.392	69.1128	516
-195.029	69.3806	518
-193.909	69.3806	518
-192.417	69.2467	517
-189.82	68.7109	513
-187.975	68.4431	511
-187.968	68.8449	514
-186.856	68.8449	514
-184.661	68.4431	511
-183.557	68.4431	511
-181.381	68.0412	508
-179.928	67.9073	507
-180.948	68.7109	513
-181.241	69.2467	517
-179.427	68.9788	515
-177.275	68.577	512
-176.168	68.577	512
-174.378	68.3091	510
-173.275	68.3091	510
-170.485	67.6394	505
-169.058	67.5055	504
-168.968	67.9073	507
-169.196	68.4431	511
-168.092	68.4431	511
-166.987	68.4431	511
-165.882	68.4431	511
-165.423	68.7109	513
-164.634	68.8449	514
-164.159	69.1128	516
-163.36	69.2467	517
-160.987	68.7109	513
-159.878	68.7109	513
-159.078	68.8449	514
-160.733	70.0503	523
-160.823	70.5861	527
-158.775	70.1843	524
-154.333	68.7109	513
-151.731	68.0412	508
-153.005	69.1128	516
-152.772	69.5146	519
-151.066	69.2467	517
-147.628	68.1752	509
-143.937	66.9697	500
-141.713	66.434	496
-141.775	66.9697	500
-142.383	67.7734	506
-141.01	67.6394	505
-139.087	67.2376	502
-135.802	66.1661	494
-136.371	66.9697	500
-136.372	67.5055	504
-136.088	67.9073	507
-134.726	67.7734	506
-134.16	68.0412	508
-133.586	68.3091	510
-131.964	68.0412	508
-129.063	67.1037	501
-127.469	66.8358	499
-127.15	67.2376	502
-124.809	66.5679	497
-123.237	66.3	495
-122.413	66.434	496
-121.341	66.434	496
-120.996	66.8358	499
-120.158	66.9697	500
-118.601	66.7018	498
-115.636	65.6303	490
-114.577	65.6303	490
-114.213	66.0322	493
-113.606	66.3	495
-112.536	66.3	495
-112.142	66.7018	498
-110.842	66.5679	497
-110.21	66.8358	499
-111.099	68.0412	508
-110.651	68.4431	511
-110.403	68.9788	515
-109.927	69.3806	518
-108.807	69.3806	518
-106.856	68.8449	514
-103.07	67.1037	501
-101.987	67.1037	501
-101.307	67.3715	503
-99.8211	67.1037	501
-98.541	66.9697	500
-98.0449	67.3715	503
-98.3068	68.3091	510
-98.3479	69.1128	516
-96.1019	68.3091	510
-93.6955	67.3715	503
-92.0558	66.9697	500
-92.0667	67.7734	506
-91.1526	67.9073	507
-89.3461	67.3715	503
-87.9079	67.1037	501
-85.9583	66.434	496
-85.5707	66.9697	500
-84.9967	67.3715	503
-83.7426	67.2376	502
-82.8221	67.3715	503
-81.5722	67.2376	502
-81.1284	67.7734	506
-80.1927	67.9073	507
-78.3167	67.2376	502
-77.0777	67.1037	501
-75.9946	67.1037	501
-75.2107	67.3715	503
-73.8286	67.1037	501
-72.6004	66.9697	500
-70.6613	66.1661	494
-69.7343	66.3	495
-69.0804	66.7018	498
-68.4135	67.1037	501
-67.3305	67.1037	501
-65.983	66.8358	499
-64.384	66.3	495
-63.1861	66.1661	494
-62.3697	66.434	496
-61.7918	66.9697	500
-61.4395	67.7734	506
-60.8227	68.3091	510
-59.6031	68.1752	509
-57.9281	67.5055	504
-55.7109	66.1661	494
-54.8642	66.434	496
-53.9004	66.5679	497
-53.1449	66.9697	500
-52.3765	67.3715	503
-51.595	67.7734	506
-50.4014	67.6394	505
-49.1144	67.3715	503
-48.0271	67.3715	503
-46.9398	67.3715	503
-45.5789	66.9697	500
-44.2311	66.5679	497
-42.9831	66.3	495
-42.167	66.7018	498
-41.008	66.5679	497
-40.014	66.7018	498
-38.7029	66.3	495
-37.7849	66.5679	497
-37.0059	67.1037	501
-35.9946	67.2376	502
-34.8399	67.1037	501
-33.42	66.434	496
-31.8913	65.4964	489
-30.9603	65.7643	491
-29.7162	65.3624	488
-28.6026	65.2285	487
-27.6629	65.4964	489
-26.9323	66.3	495
-26.1235	66.9697	500
-25.0427	66.9697	500
-23.7701	66.434	496
-22.5606	66.0322	493
-21.4077	65.7643	491
-20.3463	65.7643	491
-19.2849	65.7643	491
-18.409	66.434	496
-17.3718	66.5679	497
-16.3302	66.7018	498
-15.1924	66.434	496
-14.0633	66.1661	494
-13.048	66.434	496
-12.0965	67.1037	501
-11.0575	67.3715	503
-9.95029	67.2376	502
-8.84745	67.1037	501
-7.67144	66.3	495
-6.58806	66.1661	494
-5.52017	66.1661	494
-4.47031	66.434	496
-3.40495	66.5679	497
-2.3212	66.3	495
-1.21324	64.2909	480
-0.175978	64.4249	481
0.863807	64.4249	481
1.94317	65.7643	491
3.02905	66.3	495
4.07425	65.8982	492
5.1587	66.1661	494
6.2644	66.5679	497
7.38307	66.9697	500
8.54857	67.6394	505
9.60206	67.3715	503
10.6469	67.1037	501
11.6363	66.5679	497
12.6851	66.434	496
13.8405	66.8358	499
15.0089	67.2376	502
15.9979	66.8358	499
17.0423	66.7018	498
18.0097	66.3	495
19.0027	66.0322	493
19.9056	65.4964	489
20.7912	64.9606	485
21.7496	64.6928	483
22.9352	65.0946	486
24.282	65.8982	492
25.2425	65.6303	490
26.1944	65.3624	488
27.1376	65.0946	486
28.1882	65.0946	486
29.4193	65.4964	489
30.788	66.1661	494
31.9204	66.3	495
33.0571	66.434	496
34.2669	66.7018	498
35.5563	67.1037	501
36.7856	67.3715	503
38.0236	67.6394	505
39.2701	67.9073	507
40.3661	67.9073	507
41.2985	67.6394	505
42.1384	67.2376	502
43.1375	67.1037	501
44.4853	67.5055	504
44.8514	66.434	496
45.9236	66.434	496
46.5221	65.7643	491
47.3896	65.4964	489
48.2486	65.2285	487
48.5927	64.2909	480
49.4235	64.0231	478
50.879	64.5588	482
52.2441	64.9606	485
54.1716	66.0322	493
55.2374	66.0322	493
56.6457	66.434	496
57.3688	66.0322	493
57.7234	65.2285	487
58.1727	64.5588	482
59.5832	64.9606	485
61.3817	65.7643	491
62.5703	65.8982	492
63.5045	65.7643	491
64.1714	65.3624	488
65.4936	65.6303	490
67.5036	66.5679	497
69.4059	67.3715	503
70.6334	67.5055	504
71.0114	66.8358	499
71.5122	66.3	495
71.7024	65.4964	489
72.6107	65.3624	488
73.8166	65.4964	489
74.8737	65.4964	489
75.9308	65.4964	489
77.3027	65.7643	491
78.0449	65.4964	489
79.4255	65.7643	491
80.6508	65.8982	492
82.0466	66.1661	494
83.1145	66.1661	494
84.0119	66.0322	493
84.9051	65.8982	492
85.7939	65.7643	491
86.1478	65.2285	487
87.3796	65.3624	488
88.6157	65.4964	489
90.2229	65.8982	492
91.6576	66.1661	494
92.9132	66.3	495
93.9832	66.3	495
95.2453	66.434	496
96.5117	66.5679	497
98.1751	66.9697	500
98.8589	66.7018	498
99.1328	66.1661	494
99.5922	65.7643	491
100.039	65.3624	488
102.129	66.0322	493
104.451	66.8358	499
104.261	66.0322	493
99.1308	62.1479	464
99.918	62.014	463
104.188	64.0231	478
108.303	65.8982	492
110.479	66.5679	497
110.431	65.8982	492
109.681	64.8267	484
110.956	64.9606	485
112.467	65.2285	487
114.918	66.0322	493
115.984	66.0322	493
116.575	65.7643	491
116.678	65.2285	487
117.005	64.8267	484
119.027	65.3624	488
121.558	66.1661	494
123.371	66.5679	497
124.195	66.434	496
125.267	66.434	496
126.339	66.434	496
127.412	66.434	496
127.448	65.8982	492
127.466	65.3624	488
126.941	64.5588	482
128.78	64.9606	485
130.899	65.4964	489
131.686	65.3624	488
132.469	65.2285	487
133.248	65.0946	486
134.022	64.9606	485
134.235	64.5588	482
135.277	64.5588	482
137.167	64.9606	485
139.355	65.4964	489
142.423	66.434	496
143.205	66.3	495
144.567	66.434	496
144.171	65.7643	491
144.641	65.4964	489
144.506	64.9606	485
148.256	66.1661	494
149.323	66.1661	494
150.391	66.1661	494
151.459	66.1661	494
152.218	66.0322	493
151.419	65.2285	487
151.532	64.8267	484
151.948	64.5588	482
152.99	64.5588	482
154.032	64.5588	482
155.074	64.5588	482
156.44	64.6928	483
158.136	64.9606	485
159.512	65.0946	486
161.554	65.4964	489
164.274	66.1661	494
165.676	66.3	495
164.388	65.3624	488
162.053	64.0231	478
162.745	63.8891	477
165.493	64.5588	482
167.917	65.0946	486
169.315	65.2285	487
170.018	65.0946	486
170.365	64.8267	484
167.516	63.3534	473
166.4	62.5497	467
165.976	62.014	463
164.813	61.2103	457
169.066	62.4158	466
170.803	62.6837	468
173.283	63.2194	472
174.304	63.2194	472
176.81	63.7552	476
178.212	63.8891	477
179.995	64.157	479
180.275	63.8891	477
182.066	64.157	479
185.013	64.8267	484
187.597	65.3624	488
187.878	65.0946	486
188.929	65.0946	486
189.198	64.8267	484
188.672	64.2909	480
192.871	65.3624	488
195.118	65.7643	491
197.378	66.1661	494
198.848	66.3	495
199.514	66.1661	494
200.176	66.0322	493
200.834	65.8982	492
199.845	65.2285	487
200.486	65.0946	486
200.292	64.6928	483
200.086	64.2909	480
201.123	64.2909	480
203.846	64.8267	484
205.315	64.9606	485
206.789	65.0946	486
209.123	65.4964	489
210.18	65.4964	489
208.213	64.5588	482
207.952	64.157	479
208.552	64.0231	478
210.462	64.2909	480
211.94	64.4249	481
212.094	64.157	479
212.685	64.0231	478
218.189	65.3624	488
218.346	65.0946	486
217.59	64.5588	482
218.179	64.4249	481
219.674	64.5588	482
221.174	64.6928	483
219.458	63.8891	477
219.565	63.6212	475
220.591	63.6212	475
225.817	64.8267	484
225.457	64.4249	481
223.672	63.6212	475
225.645	63.8891	477
226.201	63.7552	476
227.23	63.7552	476
227.3	63.4873	474
228.806	63.6212	475
235.155	65.0946	486
236.692	65.2285	487
238.721	65.4964	489
239.778	65.4964	489
240.835	65.4964	489
237.44	64.2909	480
237.484	64.0231	478
235.523	63.2194	472
240.553	64.2909	480
240.584	64.0231	478
244.145	64.6928	483
248.235	65.4964	489
252.86	66.434	496
255.468	66.8358	499
256.547	66.8358	499
251.43	65.2285	487
249.372	64.4249	481
250.412	64.4249	481
256.68	65.7643	491
259.841	66.3	495
260.911	66.3	495
258.276	65.3624	488
256.143	64.5588	482
254.517	63.8891	477
255.012	63.7552	476
254.965	63.4873	474
255.99	63.4873	474
256.472	63.3534	473
258.039	63.4873	474
260.157	63.7552	476
262.283	64.0231	478
264.418	64.2909	480
264.903	64.157	479
265.938	64.157	479
274.219	65.8982	492
276.402	66.1661	494
278.032	66.3	495
272.899	64.8267	484
270.55	64.0231	478
268.742	63.3534	473
267.483	62.8176	469
267.352	62.5497	467
271.81	63.3534	473
272.832	63.3534	473
279.644	64.6928	483
283.594	65.3624	488
283.482	65.0946	486
282.777	64.6928	483
283.821	64.6928	483
285.455	64.8267	484
286.501	64.8267	484
288.735	65.0946	486
289.786	65.0946	486
290.238	64.9606	485
288.884	64.4249	481
289.924	64.4249	481
290.359	64.2909	480
291.396	64.2909	480
297.917	65.4964	489
302.643	66.3	495
305.553	66.7018	498
298.626	64.9606	485
299.674	64.9606	485
298.242	64.4249	481
297.415	64.0231	478
298.449	64.0231	478
301.362	64.4249	481
-389.406	71.8613	528
-389.735	72.1335	530
-389.322	72.2696	531
-387.444	72.1335	530
-382.653	71.453	525
-381.519	71.453	525
-381.833	71.7252	527
-379.971	71.5891	526
-378.834	71.5891	526
-379.133	71.8613	528
-377.276	71.7252	527
-376.137	71.7252	527
-373.574	71.453	525
-372.439	71.453	525
-372.719	71.7252	527
-375.105	72.4057	532
-369.035	71.453	525
-367.9	71.453	525
-370.956	72.2696	531
-371.898	72.6779	534
-368.661	72.2696	531
-364.052	71.5891	526
-363.605	71.7252	527
-362.466	71.7252	527
-362.012	71.8613	528
-363.605	72.4057	532
-367.905	73.4945	540
-370.813	74.3111	546
-366.925	73.7667	542
-359.68	72.5418	533
-358.527	72.5418	533
-355.364	72.1335	530
-352.213	71.7252	527
-351.074	71.7252	527
-348.606	71.453	525
-346.81	71.3169	524
-346.996	71.5891	526
-346.517	71.7252	527
-345.378	71.7252	527
-346.198	72.1335	530
-346.354	72.4057	532
-345.204	72.4057	532
-344.701	72.5418	533
-343.549	72.5418	533
-344.324	72.9501	536
-343.805	73.0862	537
-340.73	72.6779	534
-338.94	72.5418	533
-337.788	72.5418	533
-338.53	72.9501	536
-341.778	73.9028	543
-335.586	72.814	535
-331.304	72.1335	530
-328.912	71.8613	528
-328.392	71.9974	529
-328.485	72.2696	531
-326.721	72.1335	530
-326.19	72.2696	531
-327.49	72.814	535
-326.334	72.814	535
-327.001	73.2223	538
-321.598	72.2696	531
-310.191	69.9559	514
-307.877	69.6837	512
-311.564	70.7725	520
-316.41	72.1335	530
-320.023	73.2223	538
-318.267	73.0862	537
-312.972	72.1335	530
-311.827	72.1335	530
-310.095	71.9974	529
-307.199	71.5891	526
-306.062	71.5891	526
-303.186	71.1808	523
-301.478	71.0447	522
-300.349	71.0447	522
-299.221	71.0447	522
-298.093	71.0447	522
-298.671	71.453	525
-300.936	72.2696	531
-300.918	72.5418	533
-299.203	72.4057	532
-295.252	71.7252	527
-291.88	71.1808	523
-288.526	70.6364	519
-289.065	71.0447	522
-290.695	71.7252	527
-290.105	71.8613	528
-285.68	71.0447	522
-281.826	70.3642	517
-280.165	70.2281	516
-278.509	70.092	515
-279.55	70.6364	519
-278.965	70.7725	520
-279.978	71.3169	524
-279.378	71.453	525
-279.833	71.8613	528
-278.163	71.7252	527
-272.819	70.6364	519
-269.603	70.092	515
-269.011	70.2281	516
-268.934	70.5003	518
-270.399	71.1808	523
-269.784	71.3169	524
-268.651	71.3169	524
-268.539	71.5891	526
-267.91	71.7252	527
-267.277	71.8613	528
-264.624	71.453	525
-263.489	71.453	525
-259.356	70.6364	519
-254.751	69.6837	512
-253.644	69.6837	512
-255.99	70.6364	519
-257.323	71.3169	524
-258.635	71.9974	529
-258.465	72.2696	531
-256.833	72.1335	530
-255.205	71.9974	529
-253.1	71.7252	527
-250.527	71.3169	524
-248.442	71.0447	522
-248.261	71.3169	524
-245.714	70.9086	521
-243.649	70.6364	519
-244.396	71.1808	523
-243.265	71.1808	523
-239.82	70.5003	518
-238.7	70.5003	518
-237.58	70.5003	518
-233.722	69.6837	512
-233.524	69.9559	514
-234.221	70.5003	518
-234.001	70.7725	520
-232.877	70.7725	520
-232.199	70.9086	521
-230.186	70.6364	519
-229.946	70.9086	521
-228.82	70.9086	521
-226.82	70.6364	519
-224.393	70.2281	516
-219.383	69.0032	507
-218.287	69.0032	507
-218.477	69.4115	510
-217.374	69.4115	510
-216.696	69.5476	511
-216.857	69.9559	514
-215.746	69.9559	514
-215.887	70.3642	517
-213.523	69.9559	514
-209.933	69.1393	508
-208.835	69.1393	508
-207.327	69.0032	507
-205.825	68.8671	506
-204.731	68.8671	506
-205.247	69.4115	510
-205.345	69.8198	513
-203.44	69.5476	511
-201.148	69.1393	508
-199.262	68.8671	506
-196.993	68.4588	503
-194.737	68.0505	500
-194.431	68.3227	502
-194.116	68.5949	504
-194.942	69.2754	509
-194.222	69.4115	510
-194.634	69.9559	514
-194.276	70.2281	516
-190.915	69.4115	510
-189.812	69.4115	510
-187.6	69.0032	507
-185.4	68.5949	504
-184.676	68.731	505
-183.585	68.731	505
-182.132	68.5949	504
-179.964	68.1866	501
-177.81	67.7783	498
-176.379	67.6422	497
-174.246	67.2339	494
-172.828	67.0978	493
-170.717	66.6895	490
-175.198	68.8671	506
-173.416	68.5949	504
-170.958	68.0505	500
-169.538	67.9144	499
-167.446	67.5061	496
-166.71	67.6422	497
-166.302	67.9144	499
-165.885	68.1866	501
-165.131	68.3227	502
-164.373	68.4588	503
-163.935	68.731	505
-162.198	68.4588	503
-163.353	69.4115	510
-162.568	69.5476	511
-161.148	69.4115	510
-159.418	69.1393	508
-156.761	68.4588	503
-154.436	67.9144	499
-156.123	69.1393	508
-157.467	70.2281	516
-154.23	69.2754	509
-150.121	67.9144	499
-149.043	67.9144	499
-149.743	68.731	505
-149.24	69.0032	507
-148.436	69.1393	508
-145.308	68.1866	501
-141.922	67.0978	493
-139.999	66.6895	490
-140.074	67.2339	494
-139.006	67.2339	494
-136.263	66.4173	488
-133.546	65.6007	482
-132.504	65.6007	482
-133.371	66.5534	489
-133.937	67.37	495
-133.404	67.6422	497
-131.265	67.0978	493
-132.048	68.0505	500
-132.014	68.5949	504
-130.925	68.5949	504
-128.805	68.0505	500
-126.191	67.2339	494
-124.11	66.6895	490
-122.549	66.4173	488
-121.743	66.5534	489
-121.426	66.9617	492
-120.852	67.2339	494
-120.754	67.7783	498
-119.197	67.5061	496
-117.41	67.0978	493
-114.928	66.2812	487
-113.174	65.8729	484
-112.36	66.009	485
-111.311	66.009	485
-110.945	66.4173	488
-110.34	66.6895	490
-109.281	66.6895	490
-108.001	66.5534	489
-106.725	66.4173	488
-106.753	67.0978	493
-109.546	69.5476	511
-108.441	69.5476	511
-105.446	68.3227	502
-103.322	67.6422	497
-101.836	67.37	495
-100.766	67.37	495
-99.6956	67.37	495
-99.2233	67.7783	498
-97.7526	67.5061	496
-97.0703	67.7783	498
-96.3792	68.0505	500
-96.0608	68.5949	504
-93.0869	67.2339	494
-91.6465	66.9617	492
-90.9511	67.2339	494
-90.6111	67.7783	498
-90.4335	68.4588	503
-88.2804	67.6422	497
-85.6268	66.4173	488
-83.7054	65.7368	483
-82.6613	65.7368	483
-82.1241	66.1451	486
-81.2403	66.2812	487
-80.1876	66.2812	487
-79.7848	66.8256	491
-80.0061	67.9144	499
-78.7692	67.7783	498
-77.8487	67.9144	499
-76.6161	67.7783	498
-75.5396	67.7783	498
-74.3135	67.6422	497
-72.9444	67.37	495
-71.1484	66.6895	490
-70.3752	66.9617	492
-69.3116	66.9617	492
-68.6642	67.37	495
-67.8673	67.6422	497
-66.9273	67.7783	498
-65.4541	67.37	495
-63.8638	66.8256	491
-62.5465	66.5534	489
-61.4895	66.5534	489
-60.8031	66.9617	492
-60.1038	67.37	495
-59.8686	68.3227	502
-58.7834	68.3227	502
-56.8937	67.37	495
-54.9214	66.2812	487
-53.6475	66.009	485
-52.2737	65.6007	482
-52.082	66.6895	490
-51.8558	67.7783	498
-51.1872	68.3227	502
-50.4014	68.731	505
-48.5286	67.6422	497
-47.4542	67.6422	497
-46.2865	67.5061	496
-45.1232	67.37	495
-43.6081	66.6895	490
-42.462	66.5534	489
-41.405	66.5534	489
-40.1004	66.1451	486
-39.2908	66.5534	489
-38.3119	66.6895	490
-37.2527	66.6895	490
-36.1196	66.5534	489
-34.704	65.8729	484
-33.31	65.1924	479
-32.0724	64.7841	476
-31.2391	65.1924	479
-30.2667	65.3285	480
-29.3508	65.6007	482
-28.4851	66.009	485
-27.5498	66.2812	487
-26.6603	66.6895	490
-25.8623	67.37	495
-24.8924	67.6422	497
-23.6743	67.2339	494
-22.4691	66.8256	491
-21.2769	66.4173	488
-20.0976	66.009	485
-19.0492	66.009	485
-18.0379	66.1451	486
-17.232	67.0978	493
-16.1007	66.8256	491
-15.1005	67.0978	493
-14.0633	67.2339	494
-12.8375	66.4173	488
-11.7102	66.009	485
-10.7497	66.5534	489
-9.69261	66.5534	489
-8.65319	66.6895	490
-7.60945	66.8256	491
-6.34801	64.7841	476
-5.25198	63.9674	470
-4.21795	63.6952	468
-3.23367	64.2397	472
-2.2321	64.7841	476
-1.20565	64.9202	477
-0.174515	64.9202	477
0.860215	65.1924	479
1.90359	65.4646	481
2.97397	66.1451	486
4.02457	66.1451	486
5.06472	66.009	485
6.10054	65.8729	484
7.16158	66.009	485
8.31158	66.8256	491
9.37298	66.8256	491
10.5619	67.6422	497
11.5894	67.37	495
12.6083	67.0978	493
13.7018	67.2339	494
14.8295	67.5061	496
15.9658	67.7783	498
16.9397	67.37	495
17.9006	66.9617	492
18.7714	66.2812	487
19.5392	65.3285	480
20.4911	65.0563	478
21.5244	65.0563	478
22.7465	65.6007	482
24.1339	66.5534	489
25.2425	66.6895	490
26.087	66.1451	486
26.9143	65.6007	482
27.9562	65.6007	482
29.0583	65.7368	483
30.1648	65.8729	484
31.5335	66.5534	489
32.5905	66.5534	489
33.6476	66.5534	489
34.6337	66.4173	488
35.908	66.8256	491
37.3459	67.5061	496
38.4181	67.5061	496
39.2515	67.0978	493
40.0719	66.6895	490
41.3829	67.0978	493
42.3625	66.9617	492
43.1613	66.5534	489
43.7663	65.8729	484
44.7199	65.7368	483
45.5746	65.4646	481
46.6143	65.4646	481
47.6541	65.4646	481
48.289	64.9202	477
49.3201	64.9202	477
50.2457	64.7841	476
51.5978	65.1924	479
52.7432	65.3285	480
53.5567	65.0563	478
54.2474	64.648	475
55.0415	64.3758	473
56.301	64.648	475
57.9313	65.3285	480
59.0918	65.4646	481
60.6316	66.009	485
62.1887	66.5534	489
63.2458	66.5534	489
63.9084	66.1451	486
64.8253	66.009	485
65.8738	66.009	485
66.6462	65.7368	483
66.9896	65.0563	478
66.8844	63.9674	470
67.3226	63.423	466
68.3299	63.423	466
70.0813	64.1036	471
72.7599	65.6007	482
73.8019	65.6007	482
75.7755	66.4173	488
77.1453	66.6895	490
78.0449	66.5534	489
78.4549	66.009	485
78.8477	65.4646	481
79.5553	65.1924	479
80.759	65.3285	480
82.1374	65.6007	482
83.352	65.7368	483
85.6192	66.6895	490
87.0322	66.9617	492
87.7377	66.6895	490
88.2533	66.2812	487
88.7559	65.8729	484
89.06	65.3285	480
90.473	65.6007	482
91.3251	65.4646	481
92.5569	65.6007	482
93.4047	65.4646	481
93.8554	65.0563	478
94.8887	65.0563	478
95.922	65.0563	478
97.5638	65.4646	481
99.2186	65.8729	484
99.6434	65.4646	481
99.6366	64.7841	476
100.031	64.3758	473
100.413	63.9674	470
101.644	64.1036	471
102.881	64.2397	472
103.901	64.2397	472
105.366	64.5119	474
106.166	64.3758	473
106.735	64.1036	471
107.525	63.9674	470
109.234	64.3758	473
110.722	64.648	475
113.161	65.4646	481
113.726	65.1924	479
113.563	64.5119	474
114.829	64.648	475
117.32	65.4646	481
119.59	66.1451	486
121.137	66.4173	488
122.442	66.5534	489
122.994	66.2812	487
123.538	66.009	485
124.586	66.009	485
125.893	66.1451	486
126.422	65.8729	484
125.361	64.7841	476
126.655	64.9202	477
128.49	65.3285	480
129.257	65.1924	479
130.565	65.3285	480
132.151	65.6007	482
132.364	65.1924	479
132.564	64.7841	476
132.47	64.2397	472
134.339	64.648	475
136.791	65.3285	480
138.403	65.6007	482
140.602	66.1451	486
142.235	66.4173	488
142.703	66.1451	486
142.866	65.7368	483
141.825	64.7841	476
142.253	64.5119	474
143.58	64.648	475
145.825	65.1924	479
148.087	65.7368	483
150.366	66.2812	487
151.729	66.4173	488
152.471	66.2812	487
150.687	65.0563	478
150.451	64.5119	474
150.836	64.2397	472
152.822	64.648	475
154.496	64.9202	477
156.505	65.3285	480
158.528	65.7368	483
161.224	66.4173	488
156.958	64.2397	472
156.974	63.8313	469
157.988	63.8313	469
160.019	64.2397	472
161.039	64.2397	472
164.12	65.0563	478
166.535	65.6007	482
168.272	65.8729	484
168.969	65.7368	483
167.549	64.7841	476
164.328	63.1508	464
162.837	62.1981	457
162.749	61.7898	454
164.813	62.1981	457
169.429	63.5591	467
169.708	63.2869	465
169.612	62.8786	462
171.719	63.2869	465
174.953	64.1036	471
175.971	64.1036	471
175.486	63.5591	467
176.495	63.5591	467
174.464	62.4703	459
178.897	63.6952	468
183.368	64.9202	477
184.399	64.9202	477
185.43	64.9202	477
186.461	64.9202	477
187.1	64.7841	476
188.129	64.7841	476
191.542	65.6007	482
193.782	66.009	485
192.019	65.0563	478
191.033	64.3758	473
191.649	64.2397	472
194.302	64.7841	476
197.383	65.4646	481
198.01	65.3285	480
197.389	64.7841	476
198.418	64.7841	476
199.866	64.9202	477
201.74	65.1924	479
199.812	64.2397	472
200.407	64.1036	471
201.853	64.2397	472
203.303	64.3758	473
202.165	63.6952	468
202.743	63.5591	467
205.061	63.9674	470
210.462	65.3285	480
211.94	65.4646	481
211.652	65.0563	478
211.35	64.648	475
211.483	64.3758	473
210.708	63.8313	469
211.722	63.8313	469
213.643	64.1036	471
214.661	64.1036	471
215.679	64.1036	471
215.777	63.8313	469
216.791	63.8313	469
216.412	63.423	466
217.419	63.423	466
221.239	64.2397	472
225.084	65.0563	478
225.172	64.7841	476
225.725	64.648	475
225.798	64.3758	473
227.3	64.5119	474
228.806	64.648	475
233.22	65.6007	482
234.748	65.7368	483
234.327	65.3285	480
234.384	65.0563	478
233.94	64.648	475
233.977	64.3758	473
233.509	63.9674	470
233.527	63.6952	468
232.033	63.0147	463
235.048	63.5591	467
239.09	64.3758	473
241.635	64.7841	476
244.194	65.1924	479
244.205	64.9202	477
244.208	64.648	475
244.719	64.5119	474
243.669	63.9674	470
242.082	63.2869	465
244.133	63.5591	467
246.193	63.8313	469
248.788	64.2397	472
249.279	64.1036	471
249.766	63.9674	470
251.849	64.2397	472
252.869	64.2397	472
253.351	64.1036	471
254.37	64.1036	471
255.388	64.1036	471
259.128	64.7841	476
260.703	64.9202	477
262.832	65.1924	479
262.215	64.7841	476
261.585	64.3758	473
260.942	63.9674	470
263.63	64.3758	473
265.212	64.5119	474
265.113	64.2397	472
264.442	63.8313	469
264.89	63.6952	468
265.333	63.5591	467
265.202	63.2869	465
265.062	63.0147	463
266.638	63.1508	464
267.641	63.1508	464
272.697	64.1036	471
278.364	65.1924	479
279.399	65.1924	479
280.435	65.1924	479
280.883	65.0563	478
281.326	64.9202	477
284.133	65.3285	480
285.765	65.4646	481
286.805	65.4646	481
288.443	65.6007	482
287.683	65.1924	479
286.307	64.648	475
287.334	64.648	475
288.968	64.7841	476
291.216	65.0563	478
294.083	65.4646	481
296.35	65.7368	483
294.931	65.1924	479
295.967	65.1924	479
295.142	64.7841	476
294.927	64.5119	474
295.951	64.5119	474
296.349	64.3758	473
-392.356	73.5556	532
-387.529	72.8643	527
-379.058	71.4817	517
-372.823	70.5139	510
-370.263	70.2373	508
-371.345	70.6521	511
-370.24	70.6521	511
-370.58	70.9286	513
-375.233	72.0347	521
-374.107	72.0347	521
-368.685	71.2052	515
-367.572	71.2052	515
-365.747	71.0669	514
-364.636	71.0669	514
-364.939	71.3434	516
-367.349	72.0347	521
-360.6	70.9286	513
-359.491	70.9286	513
-358.382	70.9286	513
-354.487	70.3756	509
-355.469	70.7904	512
-356.439	71.2052	515
-355.326	71.2052	515
-354.212	71.2052	515
-356.527	71.8965	520
-357.454	72.3113	523
-360.411	73.1408	529
-361.305	73.5556	532
-360.155	73.5556	532
-354.956	72.7261	526
-353.819	72.7261	526
-348.659	71.8965	520
-345.53	71.4817	517
-344.412	71.4817	517
-344.622	71.7582	519
-343.5	71.7582	519
-343.038	71.8965	520
-340.599	71.62	518
-339.479	71.62	518
-338.36	71.62	518
-339.844	72.173	522
-340.013	72.4495	524
-338.881	72.4495	524
-339.681	72.8643	527
-339.185	73.0026	528
-337.403	72.8643	527
-334.988	72.5878	525
-333.853	72.5878	525
-332.718	72.5878	525
-332.215	72.7261	526
-330.448	72.5878	525
-321.159	70.7904	512
-320.677	70.9286	513
