448.223	43.6567	749
451.044	43.7733	751
456.886	44.1813	758
454.896	43.8316	752
452.879	43.4819	746
453.273	43.3653	744
451.824	43.0739	739
451.581	42.899	736
453.788	42.9573	737
454.763	42.899	736
458.214	43.0739	739
463.545	43.4236	745
468.277	43.715	750
-750.048	61.4758	1017
-758.88	62.3825	1032
-756.649	62.3825	1032
-757.342	62.6243	1036
-753.645	62.5034	1034
-742.69	61.778	1022
-741.205	61.8385	1023
-738.993	61.8385	1023
-746.145	62.6243	1036
-747.495	62.9266	1041
-747.393	63.1079	1044
-737.285	62.443	1033
-729.359	61.9594	1025
-727.144	61.9594	1025
-718.563	61.4154	1016
-710.021	60.8713	1007
-701.517	60.3273	998
-697.958	60.2064	996
-699.298	60.5086	1001
-697.135	60.5086	1001
-703.302	61.234	1013
-710.11	62.0198	1026
-721.001	63.1684	1045
-734.561	64.5587	1068
-741.851	65.4049	1082
-744.98	65.8885	1090
-742.624	65.8885	1090
-731.438	65.1027	1077
-723.694	64.6191	1069
-716.66	64.196	1062
-713.019	64.0751	1060
-713.409	64.3169	1064
-711.778	64.3773	1065
-713.472	64.74	1071
-711.157	64.74	1071
-708.842	64.74	1071
-709.166	64.9818	1075
-709.472	65.2236	1079
-706.484	65.1631	1078
-704.154	65.1631	1078
-703.776	65.3445	1081
-700.791	65.284	1080
-695.223	64.9818	1075
-692.899	64.9818	1075
-682.224	64.196	1062
-670.965	63.3497	1048
-662.957	62.8057	1039
-665.798	63.2892	1047
-671.139	64.0146	1059
-676.429	64.74	1071
-679.149	65.2236	1079
-679.953	65.5258	1084
-682.611	66.0094	1092
-687.103	66.6743	1103
-684.718	66.6743	1103
-684.19	66.8557	1106
-659.606	64.6796	1070
-651.15	64.0751	1060
-641.513	63.3497	1048
-633.758	62.8057	1039
-632.12	62.8661	1040
-638.957	63.7728	1055
-639.693	64.0751	1060
-636.199	63.9542	1058
-639.904	64.5587	1068
-642.968	65.1027	1077
-646.588	65.7072	1087
-644.831	65.7676	1088
-635.393	65.0422	1076
-627.184	64.4378	1066
-624.879	64.4378	1066
-622.575	64.4378	1066
-623.18	64.74	1071
-616.227	64.2564	1063
-605.843	63.4101	1049
-595.52	62.5639	1035
-592.137	62.443	1033
-598.469	63.3497	1048
-604.169	64.196	1062
-603.573	64.3773	1065
-597.883	64.0146	1059
-591.657	63.5915	1052
-587.702	63.4101	1049
-584.877	63.3497	1048
-584.835	63.5915	1052
-575.915	62.8661	1040
-563.738	61.778	1022
-552.738	60.8109	1006
-561.509	62.0198	1026
-559.291	62.0198	1026
-552.187	61.4758	1017
-544.039	60.8109	1006
-550.483	61.778	1022
-553.102	62.3221	1031
-548.201	62.0198	1026
-544.919	61.8989	1024
-543.236	61.9594	1025
-538.909	61.7176	1021
-530.919	61.0527	1010
-532.4	61.4758	1017
-531.245	61.5967	1019
-533.195	62.0803	1027
-535.628	62.6243	1036
-535.448	62.8661	1040
-531.662	62.6848	1037
-524.825	62.1407	1028
-515.994	61.3549	1015
-506.713	60.5086	1001
-504.045	60.4482	1000
-502.887	60.5691	1002
-494.225	59.7833	989
-492.585	59.8437	990
-493.417	60.2064	996
-490.277	60.0855	994
-483.709	59.5415	985
-479.135	59.2392	980
-475.556	59.0579	977
-480.713	59.9646	992
-476.157	59.6624	987
-472.582	59.481	984
-468.543	59.2392	980
-462.617	58.7556	972
-460.516	58.7556	972
-461.716	59.1788	979
-472.744	60.8713	1007
-470.567	60.8713	1007
-468.391	60.8713	1007
-459.732	60.025	993
-454.821	59.6624	987
-454.063	59.8437	990
-455.575	60.3273	998
-450.691	59.9646	992
-438.147	58.5743	969
-451.353	60.6295	1003
-448.737	60.5691	1002
-449.69	60.9922	1009
-447.509	60.9922	1009
-444.887	60.9318	1008
-444.025	61.1131	1011
-435.284	60.2064	996
-425.303	59.1183	978
-422.324	58.9974	976
-423.228	59.4206	983
-423.673	59.7833	989
-418.552	59.3601	982
-418.125	59.6019	986
-411.353	58.937	975
-402.529	57.9698	959
-399.621	57.8489	957
-401.706	58.4534	967
-404.575	59.1788	979
-404.925	59.5415	985
-404.432	59.7833	989
-407.582	60.5691	1002
-406.225	60.69	1004
-404.859	60.8109	1006
-403.085	60.8713	1007
-396.529	60.2064	996
-391.604	59.7833	989
-388.679	59.6624	987
-388.112	59.9041	991
-392.98	60.9922	1009
-390.024	60.8713	1007
-381.3	59.8437	990
-373.032	58.8765	974
-366.356	58.1512	962
-365.413	58.3325	965
-366.715	58.8765	974
-365.733	59.0579	977
-361.015	58.6347	970
-348.558	56.9422	942
-339.165	55.7332	922
-337.171	55.7332	922
-336.632	55.975	926
-339.69	56.8213	940
-337.299	56.7608	939
-335.269	56.7608	939
-338.562	57.6676	954
-334.736	57.3653	949
-326.375	56.2773	931
-319.833	55.4914	918
-316.117	55.1892	913
-315.176	55.3705	916
-310.802	54.9474	909
-304.76	54.222	897
-300.121	53.7384	889
-301.553	54.3429	899
-299.276	54.2825	898
-298.991	54.5847	903
-301.315	55.3705	916
-302.603	55.975	926
-300.926	56.0355	927
-300.212	56.2773	931
-298.519	56.3377	932
-298.095	56.6399	937
-290.698	55.6123	920
-285.571	55.0078	910
-279.241	54.1616	896
-275.757	53.8593	891
-276.289	54.3429	899
-278.008	55.0683	911
-276.644	55.1892	913
-273.167	54.887	908
-268.516	54.3429	899
-266.276	54.2825	898
-266.395	54.7056	905
-264.146	54.6452	904
-259.872	54.1616	896
-263.117	55.2496	914
-265.141	56.0959	928
-266.537	56.8213	940
-262.536	56.3982	933
-252.421	54.6452	904
-241.047	52.5899	870
-235.592	51.8041	857
-234.013	51.8645	858
-234.593	52.4086	867
-234.329	52.7713	873
-232.176	52.7108	872
-231.875	53.0735	878
-231.811	53.4966	885
-231.716	53.9198	892
-231.076	54.222	897
-228.115	53.9802	893
-223.905	53.4362	884
-217.976	52.469	868
-217.345	52.7713	873
-217.185	53.1944	880
-216.017	53.3757	883
-215.32	53.678	888
-213.401	53.678	888
-211.243	53.6175	887
-207.674	53.1944	880
-202.965	52.469	868
-200.162	52.2272	864
-198.524	52.2877	865
-196.882	52.3481	866
-195.91	52.5899	870
-192.022	52.0459	861
-187.511	51.3205	849
-185.676	51.3205	849
-181.891	50.7765	840
-178.146	50.2324	831
-176.986	50.4138	834
-177.284	51.0183	844
-178.37	51.8645	858
-180.424	53.0131	877
-174.457	51.8041	857
-170.188	51.0787	845
-169.756	51.5019	852
-175.797	53.9198	892
-175.233	54.3429	899
-173.097	54.2825	898
-170.965	54.222	897
-167.519	53.7384	889
-165.783	53.7989	890
-164.043	53.8593	891
-161.935	53.7989	890
-158.753	53.3757	883
-155.956	53.0735	878
-152.654	52.5899	870
-147.827	51.5623	853
-147.01	51.925	859
-149.547	53.4966	885
-150.303	54.4638	901
-148.849	54.6452	904
-147.545	54.887	908
-143.177	53.9802	893
-141.405	54.0407	894
-139.628	54.1011	895
-136.001	53.4362	884
-132.573	52.8317	874
-130.236	52.6504	871
-128.353	52.6504	871
-126.034	52.469	868
-124.301	52.5295	869
-123.831	53.134	879
-120.96	52.7108	872
-118.938	52.6504	871
-117.459	52.8317	874
-116.627	53.3153	882
-115.241	53.5571	886
-111.151	52.5295	869
-107.512	51.6832	855
-105.664	51.6832	855
-104.423	51.9854	860
-102.206	51.8041	857
-98.8311	51.0183	844
-96.5469	50.7765	840
-94.9566	50.8974	842
-94.5744	51.6832	855
-94.5698	52.7108	872
-93.0037	52.8922	875
-91.7369	53.2548	881
-90.4443	53.6175	887
-87.429	52.9526	876
-83.973	51.9854	860
-80.7772	51.1392	846
-78.6684	50.9578	843
-77.393	51.3205	849
-75.5577	51.3205	849
-73.6356	51.2601	848
-71.3791	50.9578	843
-69.1442	50.6556	838
-66.6899	50.172	830
-65.2866	50.4742	835
-64.0138	50.8974	842
-62.563	51.1996	847
-61.1622	51.5623	853
-58.7619	51.0787	845
-56.531	50.716	839
-54.3912	50.4138	834
-52.147	49.9906	827
-50.2983	49.9302	826
-49.5112	50.9578	843
-48.0849	51.381	850
-46.6283	51.8041	857
-45.0369	52.1063	862
-42.4222	51.1996	847
-39.8724	50.2929	832
-38.0739	50.2929	832
-35.8829	49.7489	823
-34.4353	50.2324	831
-32.5211	50.0511	828
-30.6199	49.8698	825
-28.6268	49.5071	819
-26.8563	49.5071	819
-25.4228	50.172	830
-23.8848	50.716	839
-21.887	50.2929	832
-19.5089	48.8421	808
-17.7183	48.7212	806
-15.8769	48.419	801
-14.4632	49.5071	819
-13.2042	51.5019	852
-11.3624	51.5019	852
-9.31948	50.4138	834
-7.48957	50.2324	831
-5.68633	50.172	830
-3.89211	50.172	830
-2.09789	50.172	830
-0.30476	50.3533	833
1.49415	50.2929	832
3.29666	50.3533	833
5.08513	50.2324	831
6.88979	50.2929	832
8.6779	50.2324	831
10.4113	49.9302	826
12.2707	50.2324	831
14.084	50.2929	832
15.9589	50.5347	836
17.6386	50.172	830
19.2221	49.628	821
20.6388	48.7817	807
22.1059	48.1772	797
23.6793	47.875	792
25.3273	47.7541	790
27.4115	48.419	801
29.616	49.2048	814
31.2985	49.0839	812
32.9317	48.9026	809
34.4662	48.6003	804
36.6095	49.1444	813
38.5558	49.3862	817
40.1738	49.2048	814
41.7789	49.0235	811
43.5857	49.0839	812
45.3969	49.1444	813
46.6904	48.6608	805
48.0094	48.2377	798
49.5475	48.0563	795
51.653	48.419	801
53.7177	48.7212	806
55.8041	49.0235	811
57.9831	49.3862	817
59.7492	49.3862	817
61.2142	49.1444	813
62.1971	48.5399	803
63.0571	47.875	792
64.6874	47.8145	791
66.901	48.1772	797
68.9683	48.419	801
70.6998	48.419	801
72.0697	48.1772	797
72.9593	47.6332	788
74.9469	47.8145	791
77.626	48.419	801
79.2584	48.3585	800
80.7853	48.2377	798
83.2341	48.6608	805
86.3466	49.4466	818
88.2226	49.5071	819
89.2239	49.0839	812
91.0912	49.1444	813
92.7345	49.0839	812
93.908	48.7817	807
95.6525	48.7817	807
96.9142	48.5399	803
99.0186	48.7212	806
101.636	49.1444	813
103.902	49.3862	817
105.539	49.3257	816
107.303	49.3257	816
109.334	49.4466	818
111.374	49.5675	820
112.733	49.3862	817
113.658	49.0235	811
114.273	48.5399	803
114.853	48.0563	795
115.692	47.6936	789
116.356	47.2705	782
118.65	47.5123	786
122.646	48.419	801
126.551	49.2653	815
129.415	49.6884	822
131.192	49.6884	822
131.351	49.0839	812
131.959	48.6608	805
132.703	48.2981	799
136.449	49.0235	811
136.498	48.419	801
136.849	47.9354	793
138.039	47.7541	790
139.57	47.6936	789
141.276	47.6936	789
142.8	47.6332	788
144.687	47.6936	789
146.763	47.8145	791
148.286	47.7541	790
147.905	47.0891	779
148.053	46.6055	771
150.108	46.7264	773
153.153	47.1496	780
155.236	47.2705	782
156.525	47.1496	780
153.749	45.8197	758
153.338	45.2152	748
156.405	45.6384	755
160.13	46.2429	765
164.322	46.9682	777
167.283	47.3309	783
170.271	47.6936	789
170.668	47.3309	783
172.581	47.3914	784
174.054	47.3309	783
174.624	47.0287	778
175.853	46.9078	776
174.327	46.0615	762
176.667	46.2429	765
179.253	46.4847	769
181.151	46.5451	770
183.053	46.6055	771
184.959	46.666	772
187.595	46.9078	776
187.565	46.4847	769
190.95	46.9078	776
195.11	47.5123	786
198.311	47.875	792
201.791	48.2981	799
201.226	47.7541	790
202.42	47.6332	788
204.901	47.8145	791
205.043	47.4518	785
204.107	46.8473	775
203.923	46.4242	768
206.387	46.6055	771
210.212	47.0891	779
211.624	47.0287	778
213.306	47.0287	778
214.159	46.8473	775
214.163	46.4847	769
215.264	46.3638	767
216.639	46.3033	766
220.005	46.666	772
223.11	46.9682	777
225.368	47.0891	779
228.509	47.3914	784
229.323	47.21	781
229.237	46.8473	775
227.932	46.2429	765
227.185	45.7593	757
227.612	45.5175	753
230.762	45.8197	758
235.774	46.4847	769
237.745	46.5451	770
236.922	46.0615	762
236.378	45.6384	755
240.847	46.1824	764
241.864	46.0615	762
242.232	45.8197	758
243.549	45.7593	757
243.89	45.5175	753
244.866	45.3966	751
249.771	46.0011	761
257.033	47.0287	778
261.043	47.4518	785
260.397	47.0287	778
257.362	46.1824	764
257.319	45.8802	759
258.277	45.7593	757
259.227	45.6384	755
266.733	46.666	772
270.14	46.9682	777
272.519	47.0891	779
273.851	47.0287	778
271.991	46.4242	768
273.295	46.3638	767
275.67	46.4847	769
277.333	46.4847	769
276.818	46.122	763
276.278	45.7593	757
277.547	45.6988	756
280.658	45.9406	760
282.673	46.0011	761
282.45	45.6988	756
280.702	45.1548	747
281.561	45.0339	745
282.031	44.8526	742
283.253	44.7921	741
287.546	45.2152	748
290.322	45.3966	751
292.335	45.457	752
292.788	45.2757	749
293.227	45.0943	746
294.84	45.0943	746
296.85	45.1548	747
298.065	45.0943	746
299.276	45.0339	745
299.675	44.8526	742
300.467	44.7317	740
303.699	44.9734	744
307.77	45.3361	750
310.629	45.5175	753
312.257	45.5175	753
313.468	45.457	752
314.674	45.3966	751
316.298	45.3966	751
323.848	46.2429	765
328.48	46.666	772
333.142	47.0891	779
321.072	45.1548	747
318.799	44.6108	738
318.224	44.3085	733
321.117	44.4899	736
321.831	44.369	734
325.181	44.6108	738
327.661	44.7317	740
329.706	44.7921	741
332.202	44.913	743
333.808	44.913	743
335.414	44.913	743
337.474	44.9734	744
335.436	44.4899	736
336.112	44.369	734
336.778	44.2481	732
339.747	44.4294	735
345.516	44.9734	744
348.524	45.1548	747
349.201	45.0339	745
348.928	44.7921	741
346.272	44.2481	732
341.202	43.4018	718
339.89	43.0391	712
346.704	43.704	723
353.565	44.369	734
355.152	44.369	734
355.767	44.2481	732
351.979	43.5831	721
353.538	43.5831	721
359.036	44.0667	729
363.58	44.4294	735
365.169	44.4294	735
360.77	43.704	723
359.827	43.4018	718
362.889	43.5831	721
363.942	43.5227	720
365.499	43.5227	720
370.114	43.8854	726
375.267	44.3085	733
380.451	44.7317	740
383.083	44.8526	742
381.058	44.4294	735
380.564	44.1876	731
379.53	43.8854	726
379.525	43.704	723
380.034	43.5831	721
381.063	43.5227	720
383.682	43.6436	722
384.71	43.5831	721
384.661	43.4018	718
386.751	43.4622	719
388.845	43.5227	720
391.486	43.6436	722
391.414	43.4622	719
397.34	43.9458	727
401.656	44.2481	732
398.28	43.704	723
398.737	43.5831	721
400.851	43.6436	722
403.526	43.7645	724
403.972	43.6436	722
404.41	43.5227	720
414.988	44.4899	736
417.711	44.6108	738
415.897	44.2481	732
411.206	43.5831	721
416.772	44.0063	728
421.793	44.369	734
422.226	44.2481	732
420.335	43.8854	726
422.485	43.9458	727
429.307	44.4899	736
428.556	44.2481	732
429.551	44.1876	731
429.362	44.0063	728
430.935	44.0063	728
431.915	43.9458	727
429.313	43.5227	720
432.066	43.6436	722
433.026	43.5831	721
436.393	43.7645	724
429.489	42.9182	710
431.631	42.9787	711
433.777	43.0391	712
437.151	43.2205	715
436.242	42.9787	711
445.783	43.7645	724
451.056	44.1272	730
449.534	43.8249	725
450.479	43.7645	724
452.044	43.7645	724
-744.148	63.1732	1009
-748.585	63.7367	1018
-746.385	63.7367	1018
-743.453	63.6741	1017
-734.695	63.1106	1008
-720.888	62.1088	992
-716.57	61.921	989
-714.432	61.921	989
-721.657	62.7349	1002
-730.262	63.6741	1017
-729.495	63.7993	1019
-718.728	63.048	1007
-711.57	62.6097	1000
-709.408	62.6097	1000
-710.076	62.8601	1004
-712.136	63.2358	1010
-704.329	62.7349	1002
-691.652	61.7958	987
-691.614	61.9836	990
-689.474	61.9836	990
-688.722	62.1088	992
-692.115	62.6097	1000
-700.992	63.6114	1016
-708.425	64.488	1030
-713.055	65.1141	1040
-717.641	65.7402	1050
-715.371	65.7402	1050
-711.743	65.615	1048
-706.093	65.3019	1043
-704.513	65.3645	1044
-699.566	65.1141	1040
-699.329	65.3019	1043
-703.758	65.928	1053
-706.144	66.3663	1060
-703.853	66.3663	1060
-704.209	66.6167	1064
-702.569	66.6793	1065
-708.814	67.4932	1078
-704.518	67.3054	1075
-698.275	66.9298	1069
-694.011	66.7419	1066
-689.76	66.5541	1063
-684.228	66.2411	1058
-681.941	66.2411	1058
-673.873	65.6776	1049
-663.922	64.9262	1037
-657.852	64.5506	1031
-656.259	64.6132	1032
-657.831	64.9889	1038
-658.113	65.2393	1042
-661.526	65.8028	1051
-640.436	63.9245	1021
-661.982	66.3037	1059
-660.939	66.4289	1061
-658.646	66.4289	1061
-637.793	64.5506	1031
-631.866	64.1749	1025
-623.507	63.5488	1015
-617.64	63.1732	1009
-614.239	63.048	1007
-614.494	63.2984	1011
-615.336	63.6114	1016
-616.761	63.9871	1022
-612.146	63.7367	1018
-613.541	64.1123	1024
-611.327	64.1123	1024
-613.872	64.6132	1032
-612.827	64.7384	1034
-608.229	64.488	1030
-601.296	63.9871	1022
-591.466	63.1732	1009
-589.285	63.1732	1009
-586.522	63.1106	1008
-588.401	63.5488	1015
-583.319	63.2358	1010
-578.834	62.9853	1006
-584.685	63.8619	1020
-579.624	63.5488	1015
-579.137	63.7367	1018
-577.503	63.7993	1019
-570.219	63.2358	1010
-560.724	62.4219	997
-554.087	61.921	989
-554.182	62.1714	993
-541.472	60.9818	974
-538.813	60.9192	973
-535.055	60.7314	970
-532.409	60.6688	969
-540.712	61.8584	988
-538.577	61.8584	988
-540.242	62.2966	995
-529.979	61.3575	980
-527.86	61.3575	980
-524.669	61.2323	978
-520.417	60.9818	974
-514.587	60.5436	967
-511.436	60.4184	965
-507.239	60.1679	961
-508.841	60.6062	968
-510.413	61.0444	975
-517.168	62.1088	992
-518.139	62.4845	998
-516.499	62.5471	999
-511.765	62.234	994
-508.591	62.1088	992
-505.936	62.0462	991
-497.185	61.2323	978
-493.046	60.9818	974
-487.412	60.5436	967
-480.805	59.9801	958
-473.736	59.354	948
-470.692	59.2288	946
-475.087	60.0427	959
-474.494	60.2305	962
-468.486	59.7296	954
-458.112	58.6653	937
-449.759	57.8514	924
-458.422	59.2288	946
-455.412	59.1035	944
-457.214	59.6044	952
-453.243	59.354	948
-441.199	58.0392	927
-440.143	58.1644	929
-439.078	58.2896	931
-450.68	60.1053	960
-455.147	60.9818	974
-453.971	61.1071	976
-447.232	60.481	966
-437.771	59.4792	950
-437.093	59.667	953
-437.315	59.9801	958
-436.607	60.1679	961
-425.939	58.9783	942
-418.502	58.227	930
-413.805	57.8514	924
-409.579	57.5383	919
-407.592	57.5383	919
-407.371	57.7887	923
-402.741	57.4131	917
-397.699	56.9748	910
-391.384	56.3487	900
-404.583	58.5401	935
-404.714	58.8531	940
-404.824	59.1662	945
-401.077	58.9157	941
-393.53	58.1018	928
-387.304	57.4757	918
-381.962	56.9748	910
-380.83	57.1	912
-383.013	57.7261	922
-390.111	59.1035	944
-394.237	60.0427	959
-393.8	60.2931	963
-392.125	60.3557	964
-387.613	59.9801	958
-378.298	58.8531	940
-372.664	58.2896	931
-371.447	58.4148	933
-374.974	59.2914	947
-373.714	59.4166	949
-369.705	59.1035	944
-364.548	58.6027	936
-360.201	58.227	930
-352.798	57.3505	916
-348.52	56.9748	910
-348.077	57.2253	914
-346.479	57.2879	915
-339.23	56.4113	901
-333.914	55.8478	892
-333.474	56.0983	896
-330.057	55.8478	892
-326.657	55.5974	888
-324.372	55.5348	887
-323.545	55.7226	890
-322.705	55.9105	893
-322.93	56.2861	899
-311.704	54.6583	873
-317.269	55.9731	894
-316.747	56.2235	898
-311.301	55.5974	888
-304.852	54.7835	875
-301.229	54.4704	870
-298.316	54.2826	867
-295.758	54.1574	865
-293.209	54.0322	863
-294.381	54.5956	872
-293.838	54.8461	876
-291.944	54.8461	876
-289.389	54.7209	874
-288.157	54.8461	876
-289.531	55.4722	886
-285.668	55.0965	880
-284.411	55.2217	882
-286.988	56.0983	896
-284.733	56.0357	895
-279.007	55.2844	883
-276.784	55.2217	882
-272.696	54.7835	875
-269.876	54.5956	872
-269.221	54.8461	876
-268.548	55.0965	880
-268.766	55.5348	887
-263.239	54.7835	875
-256.27	53.7191	858
-252.636	53.3435	852
-251.088	53.4061	853
-250.121	53.5939	856
-247.98	53.5313	855
-250.45	54.4704	870
-253.712	55.5974	888
-252.927	55.8478	892
-245.934	54.7209	874
-237.622	53.2808	851
-229.133	51.7782	827
-224.046	51.0269	815
-223.648	51.3399	820
-224.852	52.0287	831
-226.545	52.8426	844
-226.052	53.1556	849
-225.009	53.3435	852
-222.119	53.093	848
-217.948	52.5295	839
-216.135	52.5295	839
-217.131	53.2182	850
-213.014	52.6548	841
-210.945	52.5921	840
-211.121	53.093	848
-210.028	53.2808	851
-207.454	53.093	848
-202.712	52.3417	836
-198.742	51.7782	827
-197.192	51.8408	828
-197.998	52.5295	839
-197.587	52.9052	845
-196.456	53.093	848
-194.163	52.9678	846
-191.198	52.6548	841
-188.029	52.2791	835
-185.109	51.966	830
-180.443	51.1521	817
-178.24	51.0269	815
-176.694	51.0895	816
-175.359	51.2147	818
-173.591	51.2147	818
-170.772	50.9017	813
-168.599	50.7765	811
-166.64	50.7138	810
-165.704	50.9643	814
-162.937	50.6512	809
-163.38	51.3399	820
-163.578	51.966	830
-162.563	52.2165	834
-164.809	53.5313	855
-164.104	53.9069	861
-163.185	54.22	866
-160.754	54.0322	863
-159.072	54.0948	864
-155.203	53.4061	853
-151.561	52.78	843
-149.029	52.5295	839
-146.338	52.2165	834
-144.708	52.2791	835
-143.416	52.4669	838
-142.45	52.78	843
-141.128	52.9678	846
-140.616	53.4687	854
-139.583	53.7817	859
-138.688	54.1574	865
-136.818	54.1574	865
-133.076	53.4061	853
-130.463	53.093	848
-128.023	52.8426	844
-126.946	53.1556	849
-125.111	53.1556	849
-123.13	53.093	848
-120.439	52.7174	842
-117.21	52.0913	832
-114.579	51.7156	826
-113.476	52.0287	831
-112.889	52.5921	840
-112.66	53.3435	852
-108.477	52.2165	834
-104.372	51.0895	816
-102.231	50.9017	813
-100.844	51.0895	816
-99.566	51.3399	820
-98.3896	51.653	825
-96.2549	51.4652	822
-94.1332	51.2773	819
-92.8139	51.5278	823
-90.9241	51.4652	822
-88.605	51.1521	817
-86.7326	51.0895	816
-85.6975	51.5278	823
-84.2243	51.7156	826
-82.0395	51.4652	822
-80.2626	51.4652	822
-78.1992	51.2773	819
-75.4022	50.5886	808
-73.4733	50.4634	806
-71.6419	50.4008	805
-70.3359	50.7138	810
-69.2623	51.2147	818
-67.5765	51.2773	819
-65.4043	50.9643	814
-63.5665	50.9017	813
-61.2008	50.4008	805
-59.3868	50.3382	804
-58.2224	50.8391	812
-56.1194	50.526	807
-54.3075	50.4634	806
-52.4999	50.4008	805
-50.9489	50.5886	808
-49.324	50.7138	810
-47.5731	50.7138	810
-45.7089	50.5886	808
-43.9623	50.5886	808
-42.2156	50.5886	808
-40.3688	50.4634	806
-38.5306	50.3382	804
-36.5637	50.0251	799
-34.5749	49.6495	793
-33.0264	49.8999	797
-31.0679	49.5243	791
-29.5064	49.7747	795
-27.8578	49.8999	797
-26.1677	49.9625	798
-24.4733	50.0251	799
-22.8884	50.3382	804
-20.9925	49.9625	798
-18.9295	49.086	784
-17.1248	48.7729	779
-15.3219	48.3973	773
-13.8804	49.2112	786
-12.2123	49.3364	788
-10.4822	49.2112	786
-8.8725	49.7121	794
-7.21919	50.1504	801
-5.52191	50.4634	806
-3.75612	50.1504	801
-2.00942	49.7747	795
-0.295614	50.5886	808
1.44746	50.4634	806
3.20563	50.7138	810
4.88319	49.9625	798
6.53371	49.399	789
8.21842	49.2738	787
9.9575	49.4617	790
11.7539	49.8373	796
13.5761	50.213	802
15.3289	50.2756	803
17.001	50.0878	800
18.6602	49.8999	797
20.2808	49.6495	793
21.6622	48.8982	781
23.0515	48.2721	771
24.7823	48.3973	773
26.9666	49.3364	788
29.0703	50.0251	799
30.7589	49.9625	798
32.0362	49.2738	787
33.6089	49.086	784
35.2586	49.0234	783
36.8568	48.8982	781
38.6439	49.0234	783
40.2334	48.8982	781
41.9217	48.8982	781
43.4425	48.7103	778
44.7763	48.3347	772
46.5655	48.4599	774
48.7996	49.0234	783
51.2016	49.7121	794
53.0513	49.8373	796
54.772	49.8373	796
56.6346	49.9625	798
58.5791	50.1504	801
60.16	50.0251	799
61.3451	49.5869	792
62.3406	49.0234	783
63.8696	48.8982	781
65.3901	48.7729	779
67.9351	49.399	789
69.9054	49.5869	792
71.6175	49.5869	792
72.4963	49.0234	783
73.9047	48.8356	780
75.6877	48.8982	781
77.5742	49.0234	783
79.1656	48.9608	782
80.856	48.9608	782
83.1798	49.3364	788
85.0987	49.4617	790
87.0262	49.5869	792
88.9624	49.7121	794
90.5646	49.6495	793
92.0461	49.5243	791
93.2819	49.2738	787
95.3452	49.4617	790
97.6673	49.7747	795
100.011	50.0878	800
102.122	50.2756	803
102.176	49.4617	790
104.279	49.6495	793
107.73	50.4634	806
109.473	50.4634	806
111.353	50.526	807
112.537	50.2756	803
112.28	49.399	789
112.83	48.8982	781
113.639	48.5225	775
115.017	48.3973	773
118.348	49.086	784
121.727	49.7747	795
124.688	50.2756	803
126.739	50.4008	805
128	50.213	802
128.925	49.8999	797
128.189	48.9608	782
129.381	48.7729	779
130.224	48.4599	774
130.363	47.8964	765
132.88	48.2095	770
134.544	48.2095	770
136.917	48.4599	774
138.948	48.5851	776
139.9	48.3347	772
141.203	48.2095	770
142.31	48.0216	767
137.962	46.0181	735
141.26	46.5816	744
145.172	47.3329	756
148.554	47.8964	765
150.012	47.8338	764
148.685	46.8947	749
148.298	46.2686	739
148.475	45.8303	732
148.623	45.392	725
148.947	45.0164	719
151.548	45.3294	724
153.959	45.5799	728
162.369	47.5834	760
164.012	47.5834	760
165.873	47.646	761
168.619	47.959	766
171.164	48.2095	770
171.033	47.7086	762
168.148	46.4564	742
166.091	45.4546	726
169.277	45.8929	733
172.727	46.3938	741
175.74	46.7694	747
176.643	46.5816	744
176.813	46.206	738
177.683	46.0181	735
177.321	45.5172	727
181.107	46.0807	736
185.429	46.7694	747
189.297	47.3329	756
190.931	47.3329	756
195.113	47.959	766
196.769	47.959	766
194.798	47.0825	752
191.983	46.0181	735
193.045	45.8929	733
193.833	45.7051	730
197.285	46.1433	737
202.386	46.9573	750
206.728	47.5834	760
207.548	47.3955	757
210.566	47.7086	762
209.986	47.2077	754
211.054	47.0825	752
213.245	47.2077	754
214.59	47.1451	753
216.218	47.1451	753
217.846	47.1451	753
223.263	47.959	766
223.157	47.5834	760
221.842	46.9573	750
221.079	46.4564	742
220.283	45.9555	734
220.66	45.7051	730
224.978	46.2686	739
226.269	46.206	738
228.791	46.3938	741
228.838	46.0807	736
229.177	45.8303	732
232.65	46.206	738
235.198	46.3938	741
235.202	46.0807	736
232.932	45.3294	724
231.582	44.7659	715
233.454	44.8285	716
237.956	45.392	725
242.166	45.8929	733
246.743	46.4564	742
248.347	46.4564	742
248.604	46.206	738
247.487	45.7051	730
249.065	45.7051	730
252.36	46.0181	735
259.477	47.0199	751
262.143	47.2077	754
262.024	46.8947	749
261.883	46.5816	744
262.075	46.3312	740
264.387	46.4564	742
267.067	46.6442	745
267.956	46.519	743
269.925	46.5816	744
268.249	46.0181	735
268.736	45.8303	732
271.426	46.0181	735
271.901	45.8303	732
274.23	45.9555	734
278.447	46.3938	741
278.538	46.1433	737
280.511	46.206	738
280.577	45.9555	734
279.473	45.5172	727
283.364	45.8929	733
286.115	46.0807	736
286.142	45.8303	732
283.794	45.2042	722
282.983	44.8285	716
286.121	45.079	720
291.273	45.6425	729
293.652	45.7677	731
294.829	45.7051	730
295.595	45.5799	728
297.985	45.7051	730
300.384	45.8303	732
301.966	45.8303	732
301.475	45.5172	727
294.293	44.2024	706
297.076	44.3903	709
298.608	44.3903	709
295.061	43.639	697
297.419	43.7642	699
300.213	43.952	702
301.301	43.8894	701
304.976	44.2024	706
307.804	44.3903	709
311.082	44.6407	713
313.501	44.7659	715
316.368	44.9538	718
320.134	45.2668	723
323.032	45.4546	726
321.471	45.0164	719
321.678	44.8285	716
327.289	45.392	725
327.949	45.2668	723
328.144	45.079	720
329.243	45.0164	719
332.637	45.2668	723
335.587	45.4546	726
338.55	45.6425	729
343.858	46.1433	737
345.451	46.1433	737
342.806	45.5799	728
337.284	44.6407	713
331.698	43.7016	698
330.342	43.3259	692
334.236	43.639	697
340.559	44.2651	707
344.991	44.6407	713
344.588	44.3903	709
339.774	43.5763	696
341.769	43.639	697
348.201	44.2651	707
351.708	44.5155	711
350.761	44.2024	706
347.297	43.5763	696
345.294	43.1381	689
348.796	43.3885	693
352.822	43.7016	698
356.869	44.0146	703
361.447	44.3903	709
365.028	44.6407	713
370.168	45.079	720
372.757	45.2042	722
372.762	45.0164	719
371.193	44.6407	713
372.212	44.5781	712
373.226	44.5155	711
372.654	44.2651	707
374.712	44.3277	708
375.18	44.2024	706
377.239	44.2651	707
378.232	44.2024	706
380.834	44.3277	708
382.905	44.3903	709
383.353	44.2651	707
380.526	43.7642	699
381.491	43.7016	698
383.548	43.7642	699
386.161	43.8894	701
387.123	43.8268	700
391.412	44.1398	705
389.592	43.7642	699
388.865	43.5137	695
392.614	43.7642	699
396.945	44.0772	704
400.164	44.2651	707
399.42	44.0146	703
398.658	43.7642	699
400.17	43.7642	699
402.83	43.8894	701
404.345	43.8894	701
405.861	43.8894	701
408.538	44.0146	703
415.308	44.5781	712
418.603	44.7659	715
414.86	44.2024	706
415.207	44.0772	704
416.729	44.0772	704
415.28	43.7642	699
417.983	43.8894	701
421.294	44.0772	704
421.615	43.952	702
419.516	43.5763	696
414.366	42.8876	685
413.419	42.6372	681
417.937	42.9502	686
421.254	43.1381	689
420.903	42.9502	686
426.696	43.3885	693
441.788	44.7659	715
447.053	45.1416	721
444.879	44.7659	715
445.176	44.6407	713
-733.823	64.4473	995
-736.084	64.836	1001
-733.92	64.836	1001
-731.026	64.7712	1000
-716.473	63.6701	983
-700.541	62.4394	964
-699.906	62.569	966
-697.818	62.569	966
-706.533	63.5405	981
-720.209	64.9655	1003
-715.178	64.7064	999
-705.881	64.0587	989
-690.935	62.8928	971
-688.836	62.8928	971
-676.835	61.986	957
-667.01	61.2736	946
-653.016	60.1724	929
-663.621	61.3383	947
-670.656	62.1804	960
-668.581	62.1804	960
-673.448	62.8281	970
-676.196	63.2815	977
-678.224	63.6701	983
-686.416	64.6417	998
-689.058	65.0951	1005
-690.986	65.4837	1011
-688.8	65.4837	1011
-684.578	65.2894	1008
-685.783	65.6132	1013
-679.545	65.2246	1007
-673.332	64.836	1001
-676.532	65.3541	1009
-682.371	66.1314	1021
-682.828	66.3905	1025
-680.613	66.3905	1025
-686.339	67.1677	1037
-690.035	67.7507	1046
-683.171	67.2973	1039
-686.823	67.8802	1048
-685.211	67.945	1049
-675.782	67.2325	1038
-665.751	66.4553	1026
-664.18	66.52	1027
-661.96	66.52	1027
-661.025	66.6496	1029
-656.88	66.4553	1026
-650.195	66.0019	1019
-613.653	62.5042	965
-608.398	62.1804	960
-604.428	61.986	957
-606.766	62.4394	964
-602.173	62.1804	960
-600.723	62.2451	961
-611.104	63.5405	981
-608.983	63.5405	981
-611.193	63.9939	988
-594.262	62.4394	964
-591.564	62.3747	963
-589.482	62.3747	963
-594.72	63.1519	975
-594.436	63.3462	978
-598.378	63.9939	988
-595.036	63.8644	986
-594.107	63.9939	988
-588.975	63.6701	983
-580.283	62.9576	972
-578.182	62.9576	972
-581.415	63.5405	981
-581.066	63.7349	984
-574.82	63.2815	977
-566.846	62.6338	967
-564.756	62.6338	967
-558.592	62.1804	960
-558.836	62.4394	964
-561.95	63.0224	973
-559.847	63.0224	973
-558.317	63.0871	974
-560.208	63.5405	981
-562.639	64.0587	989
-549.166	62.7633	969
-544.249	62.4394	964
-538.228	61.986	957
-532.238	61.5326	950
-527.393	61.2088	945
-527.018	61.4031	948
-525.523	61.4679	949
-522.368	61.3383	947
-521.42	61.4679	949
-519.368	61.4679	949
-518.952	61.6622	952
-519.066	61.9213	956
-517	61.9213	956
-518.703	62.3747	963
-511.793	61.7917	954
-503.319	61.0145	942
-499.687	60.8202	939
-497.127	60.7554	938
-495.099	60.7554	938
-489.392	60.302	931
-486.856	60.2372	930
-489.537	60.8202	939
-485.431	60.5611	935
-480.308	60.1724	929
-470.577	59.2009	914
-469.113	59.2656	915
-470.709	59.719	922
-472.275	60.1724	929
-468.242	59.9134	925
-462.714	59.46	918
-459.224	59.2656	915
-458.745	59.46	918
-461.736	60.1077	928
-464.188	60.6906	937
-460.19	60.4315	933
-454.245	59.9134	925
-439.533	58.2293	899
-431.262	57.3873	886
-427.408	57.1282	882
-430.326	57.7759	892
-434.161	58.5532	904
-430.294	58.2941	900
-419.782	57.1282	882
-414.085	56.61	874
-415.497	57.0634	881
-424.859	58.6179	905
-429.445	59.5247	919
-426.994	59.46	918
-419.453	58.6827	906
-413.808	58.1645	898
-409.115	57.7759	892
-407.644	57.8407	893
-408.439	58.2293	899
-406.948	58.2941	900
-396.902	57.1282	882
-392.756	56.8043	877
-392.198	56.9987	880
-395.174	57.7111	891
-392.807	57.6464	890
-381.22	56.2214	868
-374.1	55.4441	856
-369.205	54.9907	849
-367.37	54.9907	849
-368.979	55.5089	857
-373.552	56.4805	872
-369.962	56.2214	868
-369.358	56.4157	871
-362.834	55.7032	860
-365.592	56.4157	871
-359.534	55.768	861
-358.919	55.9623	864
-362.01	56.7396	876
-368.749	58.0998	897
-374.171	59.2656	915
-373.007	59.3952	917
-369.81	59.2009	914
-362.603	58.3588	901
-356.252	57.6464	890
-355.522	57.8407	893
-353.988	57.9055	894
-351.662	57.8407	893
-343.073	56.7396	876
-337.285	56.0919	866
-331.927	55.5089	857
-330.074	55.5089	857
-329.371	55.7032	860
-328.273	55.8328	862
-326.41	55.8328	862
-324.547	55.8328	862
-322.309	55.768	861
-318.959	55.5089	857
-312.666	54.7317	845
-304.954	53.6953	829
-303.527	53.7601	830
-306.096	54.5373	842
-305.36	54.7317	845
-303.533	54.7317	845
-301.349	54.6669	844
-304.848	55.6385	859
-301.933	55.4441	856
-296.927	54.8612	847
-291.612	54.2135	837
-288.072	53.8896	832
-285.929	53.8249	831
-286.868	54.343	839
-287.433	54.7964	846
-285.604	54.7964	846
-285.452	55.1203	851
-284.613	55.3146	854
-280.78	54.926	848
-277.631	54.6669	844
-275.48	54.6021	843
-271.71	54.2135	837
-274.415	55.1203	851
-270.974	54.7964	846
-268.508	54.6669	844
-257.521	52.7885	815
-256.073	52.8533	816
-253.374	52.659	813
-250.378	52.3999	809
-249.551	52.5942	812
-252.068	53.501	826
-255.434	54.6021	843
-253.01	54.4726	841
-247.309	53.6306	828
-243.74	53.2419	822
-242.258	53.3067	823
-241.939	53.6306	828
-240.44	53.6953	829
-242.966	54.6669	844
-242.57	54.9907	849
-238.182	54.4078	840
-233.271	53.6953	829
-228.408	52.9828	818
-223.315	52.2056	806
-220.198	51.8817	801
-219.83	52.2056	806
-219.982	52.659	813
-219.566	52.9828	818
-218.064	53.0476	819
-216.558	53.1124	820
-212.428	52.5294	811
-205.22	51.1692	790
-202.739	50.9749	787
-202.57	51.3636	793
-201.109	51.4283	794
-201.151	51.8817	801
-205.146	53.3715	824
-204.845	53.7601	830
-201.338	53.3067	823
-192.285	51.3636	793
-190.811	51.4283	794
-190.047	51.6874	798
-189.03	51.8817	801
-187.533	51.9465	802
-185.799	51.9465	802
-183.836	51.8817	801
-181.877	51.817	800
-180.147	51.817	800
-177.972	51.6874	798
-174.48	51.1692	790
-172.335	51.0397	788
-171.714	51.3636	793
-170.214	51.4283	794
-166.8	50.9102	786
-165.941	51.1692	790
-164.649	51.2988	792
-163.76	51.5579	796
-161.429	51.3636	793
-160.721	51.6874	798
-159.993	52.0113	803
-160.228	52.659	813
-159.445	52.9828	818
-156.713	52.659	813
-153.24	52.076	804
-154.894	53.2419	822
-152.372	52.9828	818
-150.603	52.9828	818
-148.289	52.7885	815
-147.247	53.0476	819
-145.476	53.0476	819
-142.828	52.7238	814
-139.336	52.076	804
-137.084	51.8817	801
-134.677	51.6226	797
-132.954	51.6226	797
-130.902	51.4931	795
-131.296	52.3351	808
-131.473	53.1124	820
-132.864	54.4078	840
-129.644	53.8249	831
-125.694	52.9181	817
-123.472	52.7238	814
-121.862	52.7885	815
-119.806	52.659	813
-117.322	52.3351	808
-115.289	52.2056	806
-114.674	52.7238	814
-113.469	52.9828	818
-111.838	53.0476	819
-111.008	53.501	826
-105.52	51.6874	798
-101.974	50.7806	784
-100.151	50.7158	783
-99.4646	51.234	791
-98.3726	51.5579	796
-97.9875	52.2704	807
-96.243	52.2704	807
-94.8498	52.4647	810
-93.4436	52.659	813
-91.3478	52.4647	810
-89.1543	52.2056	806
-85.8937	51.2988	792
-83.6501	50.9749	787
-81.8447	50.9102	786
-79.8397	50.7158	783
-77.8477	50.5215	780
-75.9663	50.392	778
-74.2845	50.392	778
-72.416	50.2625	776
-71.012	50.4568	779
-70.04	50.9749	787
-69.2071	51.6226	797
-68.0769	52.076	804
-66.4214	52.1408	805
-64.0384	51.6226	797
-61.9246	51.2988	792
-59.6803	50.8454	785
-57.614	50.5215	780
-56.143	50.7158	783
-54.7286	50.9749	787
-53.0273	50.9749	787
-51.3912	51.0397	788
-49.5617	50.9102	786
-47.9235	50.9749	787
-46.3397	51.1045	789
-44.5775	51.0397	788
-42.7109	50.8454	785
-40.9617	50.7806	784
-39.0665	50.5215	780
-37.2366	50.3272	777
-35.5112	50.2625	776
-33.8337	50.2625	776
-32.1977	50.3272	777
-30.6751	50.5863	781
-28.9868	50.5863	781
-27.2636	50.5215	780
-25.5119	50.392	778
-23.83	50.392	778
-22.2336	50.5863	781
-20.3349	50.0681	773
-18.5673	49.8091	769
-16.839	49.6147	766
-15.0642	49.2261	760
-13.4743	49.4204	763
-11.9024	49.7443	768
-10.3222	50.1329	774
-8.68254	50.3272	777
-7.07498	50.8454	785
-5.37804	50.8454	785
-3.63889	50.2625	776
-1.9437	49.8091	769
-0.279516	49.4852	764
1.3864	50.0034	772
3.08295	50.4568	779
4.7608	50.392	778
6.40949	50.1329	774
8.04089	49.8738	770
9.73062	50.0034	772
11.3995	50.0034	772
13.136	50.2625	776
14.7372	50.0034	772
16.2572	49.55	765
17.7939	49.2261	760
19.5135	49.4204	763
21.052	49.1613	759
22.5731	48.9023	755
24.109	48.7079	752
25.9057	49.0318	757
27.7241	49.3557	762
29.3328	49.2909	761
30.8964	49.1613	759
32.6229	49.2909	761
34.2679	49.2909	761
35.8186	49.1613	759
37.8048	49.6147	766
39.4092	49.55	765
41.2776	49.8091	769
42.8283	49.6795	767
44.2543	49.4204	763
45.6631	49.1613	759
47.3038	49.1613	759
49.267	49.4852	764
51.1185	49.6795	767
52.8453	49.7443	768
54.5765	49.8091	769
56.312	49.8738	770
58.0518	49.9386	771
60.2607	50.392	778
61.7833	50.2625	776
63.5425	50.3272	777
65.1382	50.2625	776
67.1601	50.5215	780
69.1993	50.7806	784
70.6228	50.5863	781
71.4778	50.0034	772
73.2414	50.0681	773
75.3001	50.3272	777
76.7816	50.1977	775
78.052	49.9386	771
79.4085	49.7443	768
81.0687	49.7443	768
83.2675	50.0681	773
85.378	50.3272	777
87.1697	50.392	778
87.8237	49.8091	769
89.486	49.8091	769
91.9781	50.2625	776
94.259	50.5863	781
95.5788	50.392	778
96.0105	49.7443	768
97.0348	49.4204	763
99.0722	49.6147	766
99.939	49.2261	760
101.849	49.3557	762
104.04	49.6147	766
105.972	49.7443	768
109.033	50.392	778
110.146	50.1329	774
110.374	49.4852	764
112.026	49.4852	764
114.868	50.0034	772
117.895	50.5863	781
120.502	50.9749	787
122.359	51.0397	788
122.96	50.5863	781
123.372	50.0681	773
124.072	49.6795	767
125.894	49.7443	768
126.059	49.1613	759
127.364	49.0318	757
127.807	48.5784	750
128.566	48.2545	745
131.574	48.7727	753
133.732	48.967	756
133.039	48.125	743
133.92	47.8659	739
131.667	46.5057	718
133.404	46.5705	719
135.71	46.8296	723
138.791	47.3477	731
142.1	47.9307	740
144.476	48.1898	744
145.299	47.9307	740
144.715	47.2182	729
144.485	46.6353	720
144.419	46.1171	712
145.548	45.9876	710
148.119	46.3114	715
149.036	46.1171	712
150.998	46.2466	714
152.114	46.1171	712
153.438	46.0523	711
154.103	45.7932	707
156.952	46.1819	713
158.271	46.1171	712
158.912	45.858	708
160.669	45.9228	709
162.888	46.1171	712
165.813	46.5057	718
169.23	47.0239	726
171.976	47.3477	731
173.081	47.2182	729
173.459	46.8943	724
173.332	46.4409	717
172.199	45.7285	706
173.479	45.6637	705
176.244	45.9876	710
182.787	47.283	730
185.375	47.5421	734
184.924	47.0239	726
183.668	46.3114	715
184.955	46.2466	714
187.543	46.5057	718
190.148	46.7648	722
191.178	46.6353	720
191.396	46.3114	715
192.672	46.2466	714
194.487	46.3114	715
196.581	46.4409	717
200.895	47.0887	727
201.909	46.9591	725
208.248	48.0602	742
209.852	48.0602	742
209.746	47.6716	736
209.327	47.2182	729
212.349	47.5421	734
215.685	47.9307	740
215.816	47.6068	735
208.531	45.6637	705
208.864	45.4046	701
210.979	45.5342	703
214.01	45.858	708
217.063	46.1819	713
219.831	46.4409	717
220.763	46.3114	715
221.998	46.2466	714
224.167	46.3762	716
227.922	46.8296	723
229.485	46.8296	723
229.45	46.5057	718
228.428	45.9876	710
227.048	45.4046	701
228.237	45.3398	700
231.72	45.7285	706
236.219	46.3114	715
240.093	46.7648	722
241.653	46.7648	722
241.193	46.3762	716
240.707	45.9876	710
242.583	46.0523	711
249.956	47.1534	728
252.567	47.3477	731
253.799	47.283	730
255.027	47.2182	729
255.547	47.0239	726
257.117	47.0239	726
259.399	47.1534	728
260.973	47.1534	728
261.104	46.8943	724
259.766	46.3762	716
260.949	46.3114	715
260.659	45.9876	710
262.563	46.0523	711
263.357	45.9228	709
269.747	46.7648	722
273.187	47.0887	727
277.026	47.4773	733
277.85	47.3477	731
275.99	46.7648	722
272.553	45.9228	709
273.313	45.7932	707
275.619	45.9228	709
278.715	46.1819	713
279.47	46.0523	711
279.821	45.858	708
280.954	45.7932	707
283.681	45.9876	710
287.225	46.3114	715
278.674	44.6921	690
285.038	45.4694	702
289.004	45.858	708
289.304	45.6637	705
290.003	45.5342	703
291.108	45.4694	702
290.124	45.0808	696
291.629	45.0808	696
291.449	44.8217	692
291.675	44.6274	689
293.164	44.6274	689
293.798	44.4978	687
293.564	44.2387	683
294.176	44.1092	681
296.951	44.3035	684
302.793	44.9512	694
306.485	45.2751	699
309.318	45.4694	702
310.836	45.4694	702
313.688	45.6637	705
314.765	45.5989	704
315.388	45.4694	702
314.197	45.0808	696
314.341	44.8864	693
317.206	45.0808	696
324.664	45.9228	709
327.577	46.1171	712
329.578	46.1819	713
330.655	46.1171	712
333.127	46.2466	714
333.733	46.1171	712
331.505	45.5989	704
326.404	44.6921	690
324.094	44.174	682
325.568	44.174	682
329.44	44.4978	687
335.261	45.0808	696
339.185	45.4046	701
338.756	45.1455	697
333.428	44.2387	683
335.395	44.3035	684
338.844	44.5626	688
340.825	44.6274	689
339.831	44.3035	684
340.311	44.174	682
339.781	43.9149	678
343.26	44.174	682
347.262	44.4978	687
350.27	44.6921	690
351.761	44.6921	690
354.789	44.8864	693
359.371	45.2751	699
362.431	45.4694	702
364.467	45.5342	703
365.466	45.4694	702
366.984	45.4694	702
368.501	45.4694	702
368.438	45.2751	699
368.361	45.0808	696
369.866	45.0808	696
372.437	45.2103	698
373.946	45.2103	698
375.993	45.2751	699
377.504	45.2751	699
377.388	45.0808	696
374.538	44.5626	688
370.56	43.9149	678
369.282	43.591	673
369.084	43.3967	670
371.638	43.5262	672
373.091	43.5262	672
372.872	43.3319	669
375.996	43.5262	672
381.942	44.0444	680
387.923	44.5626	688
392.24	44.8864	693
391.466	44.6274	689
392.385	44.5626	688
392.727	44.433	686
394.21	44.433	686
392.809	44.1092	681
394.86	44.174	682
398.078	44.3683	685
400.142	44.433	686
396.356	43.8501	677
393.118	43.3319	669
394.564	43.3319	669
396.011	43.3319	669
399.239	43.5262	672
406.058	44.1092	681
414.113	44.8217	692
413.807	44.6274	689
408.666	43.9149	678
404.688	43.3319	669
404.92	43.2024	667
406.971	43.2672	668
412.083	43.6558	674
414.767	43.7853	676
414.382	43.591	673
418.308	43.8501	677
424.112	44.3035	684
428.079	44.5626	688
431.44	44.7569	691
-705.798	64.0546	957
-706.67	64.3223	961
-704.593	64.3223	961
-704.709	64.5231	964
-688.047	63.1845	944
-683.1	62.9167	940
-689.762	63.7199	952
-687.704	63.7199	952
-696.45	64.7239	967
-708.721	66.0626	987
-704.439	65.8618	984
-693.747	65.0586	972
-678.838	63.8538	954
-676.776	63.8538	954
-666.226	63.0506	942
-655.024	62.1805	929
-645.284	61.4442	918
-644	61.5112	919
-648.301	62.1136	928
-646.294	62.1136	928
-647.066	62.3813	932
-639.514	61.8458	924
-638.896	61.9797	926
-647.212	62.9837	941
-657.519	64.1885	959
-660.23	64.657	966
-658.142	64.657	966
-656.053	64.657	966
-650.58	64.3223	961
-648.503	64.3223	961
-649.116	64.5901	965
-658.429	65.7279	982
-658.979	65.9957	986
-655.515	65.8618	984
-653.388	65.8618	984
-652.585	65.9957	986
-653.092	66.2634	990
-649.637	66.1295	988
-650.778	66.4642	993
-653.204	66.9327	1000
-647.136	66.5311	994
-646.934	66.7319	997
-646.072	66.8658	999
-621.353	64.5231	964
-621.196	64.7239	967
-608.222	63.5861	950
-603.616	63.3183	946
-597.755	62.9167	940
-594.456	62.7829	938
-594.323	62.9837	941
-581.589	61.8458	924
-575.828	61.4442	918
-572.593	61.3104	916
-569.367	61.1765	914
-572.357	61.712	922
-570.364	61.712	922
-572.686	62.1805	929
-574.364	62.5821	935
-572.343	62.5821	935
-573.371	62.9167	940
-578.025	63.653	951
-576.575	63.7199	952
-571.5	63.3853	947
-566.446	63.0506	942
-562.013	62.7829	938
-558.194	62.5821	935
-552.009	62.1136	928
-551.188	62.2474	930
-547.406	62.0466	927
-545.991	62.1136	928
-542.813	61.9797	926
-540.811	61.9797	926
-539.973	62.1136	928
-535.068	61.7789	923
-523.255	60.641	906
-520.145	60.5072	904
-521.63	60.9088	910
-531.084	62.2474	930
-534.763	62.9167	940
-531.031	62.7159	937
-530.134	62.8498	939
-526.98	62.7159	937
-523.273	62.5151	934
-519.022	62.2474	930
-510.897	61.5112	919
-509.464	61.5781	920
-509.13	61.7789	923
-502.189	61.1765	914
-490.363	59.9717	896
-491.696	60.3733	902
-496.262	61.1765	914
-495.909	61.3773	917
-493.388	61.3104	916
-492.481	61.4442	918
-485.687	60.8418	909
-478.401	60.1725	899
-475.397	60.0386	897
-474.514	60.1725	899
-469.417	59.7709	893
-464.869	59.4362	888
-466.077	59.8378	894
-462.587	59.637	891
-456.525	59.1016	883
-447.923	58.2315	870
-440.915	57.5621	860
-442.63	58.0307	867
-444.823	58.5661	875
-449.006	59.3693	887
-450.113	59.7709	893
-447.178	59.637	891
-447.251	59.9048	895
-445.316	59.9048	895
-431.988	58.3653	872
-423.197	57.4283	858
-420.851	57.3613	857
-420.954	57.6291	861
-416.659	57.2944	856
-414.809	57.2944	856
-413.441	57.3613	857
-411.588	57.3613	857
-406.867	56.9597	851
-399.792	56.2235	840
-395.607	55.8888	835
-393.802	55.8888	835
-396.692	56.5581	845
-393.931	56.4243	843
-390.248	56.1565	839
-388.434	56.1565	839
-389.846	56.6251	846
-388.935	56.7589	848
-385.276	56.4912	844
-383.451	56.4912	844
-381.627	56.4912	844
-378.902	56.3573	842
-374.843	56.0227	837
-376.153	56.4912	844
-378.764	57.1605	854
-377.359	57.2275	855
-371.997	56.692	847
-365.796	56.0227	837
-358.333	55.1525	824
-351.36	54.3494	812
-348.313	54.1486	809
-349.134	54.5502	815
-350.782	55.0856	823
-353.668	55.8219	834
-353.131	56.0227	837
-345.865	55.1525	824
-338.237	54.2155	810
-337.732	54.4163	813
-338.041	54.751	818
-342.439	55.7549	833
-342.274	56.0227	837
-351.448	57.8299	864
-354.435	58.6331	876
-352.139	58.5661	875
-343.443	57.4283	858
-341.986	57.4952	859
-341.713	57.7629	863
-339.06	57.6291	861
-333.674	57.0267	852
-328.327	56.4243	843
-322.244	55.688	832
-321.986	55.9557	836
-320.945	56.0896	838
-318.753	56.0227	837
-316.943	56.0227	837
-316.64	56.2904	841
-318.565	56.9597	851
-315.982	56.8259	849
-308.226	55.7549	833
-302.379	55.0187	822
-299.139	54.751	818
-299.552	55.1525	824
-299.939	55.5541	830
-299.222	55.7549	833
-298.493	55.9557	836
-295.266	55.688	832
-291.704	55.3533	827
-286.411	54.684	817
-285.69	54.8848	820
-283.571	54.8179	819
-282.488	54.9518	821
-281.398	55.0856	823
-278.599	54.8848	820
-276.151	54.751	818
-275.725	55.0187	822
-277.614	55.7549	833
-274.158	55.4203	828
-269.736	54.8848	820
-263.062	53.8808	805
-258.4	53.2784	796
-255.389	53.0107	792
-254.318	53.1446	794
-252.602	53.1446	794
-250.885	53.1446	794
-248.541	53.0107	792
-244.336	52.4752	784
-238.927	51.6721	772
-236.029	51.4043	768
-236.505	51.8728	775
-238.163	52.6091	786
-238.569	53.0776	793
-239.245	53.6131	801
-237.217	53.5462	800
-235.782	53.6131	801
-232.589	53.2784	796
-228.838	52.8099	789
-226.845	52.743	788
-226.284	53.0107	792
-227.124	53.6131	801
-226.237	53.8139	804
-223.382	53.5462	800
-220.267	53.2115	795
-217.449	52.9438	791
-216.284	53.0776	793
-217.276	53.747	803
-215.272	53.68	802
-211.142	53.0776	793
-207.051	52.4752	784
-205.094	52.4083	783
-201.583	51.9398	776
-199.132	51.739	773
-198.228	51.9398	776
-199.843	52.8099	789
-198.64	52.9438	791
-197.179	53.0107	792
-195.467	53.0107	792
-193.021	52.8099	789
-188.405	52.0067	777
-187.687	52.2744	781
-186.237	52.3414	782
-184.074	52.2075	780
-180.284	51.6051	771
-177.69	51.3374	767
-177.639	51.8059	774
-178.467	52.5422	785
-176.319	52.4083	783
-172.173	51.6721	772
-170.063	51.5382	770
-167.961	51.4043	768
-165.218	51.0697	763
-163.354	51.0027	762
-161.919	51.0697	763
-161.32	51.4043	768
-160.076	51.5382	770
-157.794	51.3374	767
-153.897	50.6011	756
-153.269	50.9358	761
-153.019	51.4043	768
-151.95	51.6051	771
-152.233	52.2744	781
-151.123	52.4752	784
-150	52.676	787
-148.487	52.743	788
-147.342	52.9438	791
-146.369	53.2115	795
-145.924	53.68	802
-145.628	54.2155	810
-144.41	54.4163	813
-140.723	53.68	802
-136.216	52.6091	786
-135.031	52.8099	789
-132.987	52.676	787
-131.286	52.676	787
-128.432	52.2075	780
-126.421	52.0736	778
-124.899	52.1406	779
-124.164	52.5422	785
-122.623	52.6091	786
-121.693	52.9438	791
-120.135	53.0107	792
-118.573	53.0776	793
-115.68	52.5422	785
-112.24	51.739	773
-109.997	51.4713	769
-110.307	52.4083	783
-111.527	53.8139	804
-110.472	54.1486	809
-107.917	53.747	803
-102.346	51.8059	774
-100.023	51.4713	769
-98.2326	51.4043	768
-97.2011	51.739	773
-96.148	52.0736	778
-94.7091	52.2075	780
-93.3807	52.4083	783
-91.571	52.3414	782
-90.1104	52.4752	784
-87.739	52.0736	778
-85.3935	51.6721	772
-83.7246	51.6721	772
-82.0558	51.6721	772
-80.2828	51.6051	771
-78.0043	51.2035	765
-76.5502	51.3374	767
-74.6969	51.2035	765
-73.1387	51.2705	766
-71.1095	51.0027	762
-69.3711	50.9358	761
-68.794	51.739	773
-67.9914	52.4083	783
-66.4681	52.5422	785
-63.451	51.4713	769
-61.869	51.5382	770
-60.2044	51.5382	770
-58.3119	51.3374	767
-56.1368	50.8689	760
-54.4939	50.8689	760
-53.4768	51.4713	769
-51.8145	51.4713	769
-49.826	51.1366	764
-47.5439	50.4673	754
-45.6095	50.1326	749
-44.0491	50.1995	750
-42.3713	50.1326	749
-40.8065	50.1995	750
-39.2375	50.2665	751
-37.6141	50.2665	751
-36.0865	50.4003	753
-34.4587	50.4003	753
-33.4849	51.4043	768
-31.8662	51.4713	769
-29.9289	51.0027	762
-28.0589	50.6011	756
-26.4596	50.6681	757
-24.7904	50.6011	756
-23.2174	50.735	758
-21.5789	50.735	758
-19.5983	49.8649	745
-18.181	50.4003	753
-16.4653	50.1326	749
-14.8263	50.0657	748
-13.3153	50.4673	754
-11.6699	50.4003	753
-10.0421	50.4003	753
-8.50374	50.9358	761
-6.92177	51.4043	768
-5.27527	51.5382	770
-3.58262	51.1366	764
-1.90832	50.5342	755
-0.274394	50.1995	750
1.35228	50.4003	753
3.0315	51.2705	766
4.71797	51.6051	771
6.33497	51.2035	765
7.88425	50.5342	755
9.46593	50.2665	751
11.1337	50.4673	754
12.7467	50.4003	753
14.2981	50.1326	749
15.8322	49.8649	745
17.4427	49.8649	745
19.1555	50.1326	749
20.8855	50.4003	753
22.3339	49.9987	747
23.8525	49.7979	744
25.5293	49.9318	746
27.2511	50.1326	749
28.8702	50.1326	749
30.4486	50.0657	748
32.0656	50.0657	748
33.7726	50.1995	750
35.4883	50.3334	752
37.1632	50.4003	753
38.7395	50.3334	752
40.6335	50.6681	757
42.1024	50.4673	754
43.5003	50.1995	750
44.2192	49.1955	735
45.1225	48.4593	724
47.0745	48.8609	730
49.319	49.5302	740
51.538	50.1326	749
53.37	50.3334	752
55.0687	50.4003	753
56.7718	50.4673	754
58.2468	50.3334	752
59.7132	50.1995	750
61.498	50.3334	752
63.2076	50.4003	753
65.4381	50.8689	760
66.2866	50.2665	751
67.4579	49.9318	746
69.0706	49.9318	746
70.9674	50.1326	749
73.9433	51.0697	763
75.2955	50.8689	760
76.7359	50.735	758
78.1677	50.6011	756
79.2742	50.2665	751
81.3285	50.5342	755
82.3013	50.1326	749
83.0241	49.5971	741
84.0549	49.2625	736
85.6459	49.2625	736
87.8296	49.5971	741
90.3969	50.1326	749
92.7532	50.5342	755
93.0101	49.7979	744
94.3641	49.6641	742
96.8734	50.1326	749
98.8871	50.3334	752
100.78	50.4673	754
102.546	50.5342	755
103.488	50.1995	750
104.829	50.0657	748
106.873	50.2665	751
108.641	50.3334	752
110.413	50.4003	753
112.933	50.8019	759
115.933	51.4043	768
118.052	51.6051	771
119.408	51.4713	769
118.237	50.2665	751
116.828	48.9947	732
119.219	49.3294	737
121.96	49.7979	744
124.565	50.1995	750
125.681	49.9987	747
126.614	49.731	743
126.15	48.9278	731
127.031	48.6601	727
127.541	48.2585	721
125.698	46.9868	702
127.034	46.9198	701
129.099	47.1206	704
131.363	47.3884	708
133.645	47.6561	712
136.513	48.1246	719
139.603	48.6601	727
141.563	48.7939	729
142.55	48.5931	726
141.936	47.8569	715
141.876	47.3214	707
142.39	46.9868	702
144.523	47.1876	705
146.876	47.4553	709
148.408	47.4553	709
149.306	47.2545	706
