-104.688	66.561	474
-104.319	66.9822	477
-102.855	66.7014	475
-101.4	66.4205	473
-101.65	67.2631	479
-102.505	68.5269	488
-102.906	69.5099	495
-102.864	70.212	500
-101.784	70.212	500
-99.2928	69.229	493
-97.4301	68.6673	489
-95.9789	68.3865	487
-94.9261	68.3865	487
-94.2589	68.6673	489
-93.0112	68.5269	488
-91.2026	67.9652	484
-89.2249	67.2631	479
-87.6371	66.8418	476
-87.336	67.4035	480
-86.6579	67.6844	482
-84.5502	66.8418	476
-82.6439	66.1397	471
-81.1058	65.7184	468
-81.4633	66.8418	476
-81.9551	68.1056	485
-82.0744	69.0886	492
-81.3402	69.3694	494
-79.9473	69.0886	492
-78.2424	68.5269	488
-76.5548	67.9652	484
-75.3525	67.8248	483
-74.1545	67.6844	482
-72.6575	67.2631	479
-70.8745	66.561	474
-69.7025	66.4205	473
-68.2444	65.9993	470
-67.3714	66.1397	471
-66.2123	65.9993	470
-65.0576	65.8588	469
-64.7265	66.561	474
-63.8363	66.7014	475
-62.8095	66.7014	475
-61.9127	66.8418	476
-61.1396	67.1227	478
-60.3578	67.4035	480
-59.6909	67.8248	483
-58.7682	67.9652	484
-57.9604	68.2461	486
-56.6757	67.9652	484
-55.6294	67.9652	484
-54.6959	68.1056	485
-53.5368	67.9652	484
-52.3821	67.8248	483
-51.338	67.8248	483
-49.9815	67.4035	480
-49.1478	67.6844	482
-47.5071	66.8418	476
-46.2828	66.561	474
-45.1627	66.4205	473
-44.7001	67.2631	479
-44.485	68.5269	488
-43.5191	68.6673	489
-41.1595	66.561	474
-39.2035	65.0163	463
-38.6977	65.8588	469
-37.6035	65.7184	468
-36.5918	65.7184	468
-35.5041	65.578	467
-34.7162	65.9993	470
-34.5606	67.6844	482
-33.7968	68.2461	486
-32.7462	68.2461	486
-31.6956	68.2461	486
-30.582	68.1056	485
-29.4726	67.9652	484
-28.3676	67.8248	483
-27.3235	67.8248	483
-26.1706	67.5439	481
-25.0263	67.2631	479
-23.9909	67.2631	479
-22.8116	66.8418	476
-21.6911	66.561	474
-20.5793	66.2801	472
-19.5589	66.2801	472
-18.6172	66.561	474
-17.7781	67.2631	479
-16.8475	67.6844	482
-15.7728	67.5439	481
-14.6104	66.9822	477
-13.5224	66.7014	475
-12.4429	66.4205	473
-11.4205	66.4205	473
-10.332	65.9993	470
-9.29619	65.8588	469
-8.26468	65.7184	468
-7.36149	66.7014	475
-6.36134	66.9822	477
-5.29668	66.561	474
-4.254	66.2801	472
-3.19942	65.578	467
-2.19928	65.8588	469
-1.19049	66.1397	471
-0.173417	66.561	474
0.856623	66.9822	477
1.8838	66.8418	476
2.92502	67.1227	478
3.97488	67.4035	480
5.03339	67.6844	482
6.08794	67.8248	483
7.13205	67.8248	483
8.1423	67.5439	481
9.18209	67.5439	481
10.2006	67.4035	480
11.3553	68.1056	485
12.3782	67.9652	484
13.3967	67.8248	483
14.381	67.5439	481
15.4529	67.6844	482
16.5632	67.9652	484
17.5004	67.5439	481
18.3474	66.8418	476
19.0507	65.7184	468
19.9338	65.2971	465
20.894	65.1567	464
22.0386	65.578	467
23.0975	65.7184	468
24.1607	65.8588	469
25.3356	66.2801	472
26.4676	66.561	474
27.4922	66.561	474
28.4567	66.4205	473
29.3545	66.1397	471
30.3082	65.9993	470
31.6575	66.7014	475
32.8907	67.1227	478
34.066	67.4035	480
35.2498	67.6844	482
36.2918	67.6844	482
36.9465	66.9822	477
37.8184	66.7014	475
38.8452	66.7014	475
40.5435	67.8248	483
41.5876	67.8248	483
42.3669	67.4035	480
43.5854	67.6844	482
44.5348	67.5439	481
45.9536	68.1056	485
46.6143	67.5439	481
46.8615	66.4205	473
47.884	66.4205	473
49.4235	67.1227	478
50.9846	67.8248	483
52.2441	68.1056	485
52.6333	67.2631	479
53.1085	66.561	474
54.1332	66.561	474
55.5069	66.9822	477
56.5381	66.9822	477
57.4485	66.8418	476
57.9861	66.2801	472
58.7564	65.9993	470
59.8996	66.1397	471
61.4351	66.7014	475
63.7769	68.1056	485
64.959	68.2461	486
66.417	68.6673	489
67.3361	68.5269	488
68.5312	68.6673	489
69.446	68.5269	488
70.212	68.2461	486
71.4092	68.3865	487
72.4619	68.3865	487
73.5147	68.3865	487
75.0268	68.8077	490
75.6202	68.3865	487
76.673	68.3865	487
77.7257	68.3865	487
79.4255	68.9482	491
79.9951	68.5269	488
79.7214	67.4035	480
80.086	66.8418	476
81.115	66.8418	476
82.6617	67.2631	479
83.3477	66.9822	477
83.6712	66.4205	473
84.6937	66.4205	473
86.6223	67.1227	478
88.2057	67.5439	481
89.8021	67.9652	484
90.473	67.6844	482
91.1352	67.4035	480
91.9808	67.2631	479
92.4337	66.8418	476
91.6955	65.578	467
92.7051	65.578	467
94.1159	65.8588	469
95.1298	65.8588	469
95.5286	65.4376	466
96.536	65.4376	466
97.1247	65.1567	464
98.3392	65.2971	465
98.9171	65.0163	463
99.918	65.0163	463
101.573	65.4376	466
103.241	65.8588	469
105.588	66.7014	475
107.064	66.9822	477
107.642	66.7014	475
107.753	66.1397	471
108.541	65.9993	470
109.79	66.1397	471
111.749	66.7014	475
114.2	67.5439	481
114.521	67.1227	478
115.313	66.9822	477
115.856	66.7014	475
116.391	66.4205	473
117.413	66.4205	473
117.685	65.9993	470
117.943	65.578	467
119.462	65.8588	469
120.99	66.1397	471
123.044	66.7014	475
123.81	66.561	474
123.517	65.8588	469
124.266	65.7184	468
126.08	66.1397	471
127.368	66.2801	472
127.301	65.7184	468
128.312	65.7184	468
129.877	65.9993	470
130.893	65.9993	470
132.189	66.1397	471
133.773	66.4205	473
135.651	66.8418	476
137.541	67.2631	479
138.866	67.4035	480
139.029	66.9822	477
140.06	66.9822	477
141.091	66.9822	477
142.42	67.1227	478
143.754	67.2631	479
144.185	66.9822	477
144.303	66.561	474
144.714	66.2801	472
145.734	66.2801	472
145.511	65.7184	468
145.897	65.4376	466
146.589	65.2971	465
148.229	65.578	467
153.073	67.2631	479
149.926	65.4376	466
151.905	65.8588	469
152.919	65.8588	469
153.605	65.7184	468
154.947	65.8588	469
155.96	65.8588	469
159.317	66.8418	476
161.357	67.2631	479
162.731	67.4035	480
162.745	66.9822	477
161.716	66.1397	471
161.352	65.578	467
162.362	65.578	467
164.771	66.1397	471
167.549	66.8418	476
168.224	66.7014	475
168.182	66.2801	472
168.127	65.8588	469
166.977	65.0163	463
169.429	65.578	467
170.438	65.578	467
168.878	64.595	460
169.872	64.595	460
172.724	65.2971	465
174.476	65.578	467
176.989	66.1397	471
179.897	66.8418	476
179.025	66.1397	471
175.074	64.3142	458
174.911	63.8929	455
177.441	64.4546	459
179.21	64.7355	461
180.207	64.7355	461
181.99	65.0163	463
185.757	65.9993	470
185.978	65.7184	468
185.791	65.2971	465
186.395	65.1567	464
186.994	65.0163	463
187.183	64.7355	461
188.179	64.7355	461
190.817	65.2971	465
192.648	65.578	467
194.072	65.7184	468
193.833	65.2971	465
193.581	64.8759	462
192.474	64.1738	457
194.732	64.595	460
197.428	65.1567	464
200.57	65.8588	469
202.013	65.9993	470
202.597	65.8588	469
203.611	65.8588	469
205.061	65.9993	470
205.2	65.7184	468
204.89	65.2971	465
204.567	64.8759	462
204.231	64.4546	459
204.329	64.1738	457
205.317	64.1738	457
207.208	64.4546	459
210.468	65.1567	464
212.382	65.4376	466
212.474	65.1567	464
212.097	64.7355	461
212.631	64.595	460
215.019	65.0163	463
217.886	65.578	467
219.364	65.7184	468
219.434	65.4376	466
219.495	65.1567	464
221.449	65.4376	466
222.933	65.578	467
224.422	65.7184	468
223.026	65.0163	463
222.091	64.4546	459
223.569	64.595	460
226.028	65.0163	463
229.481	65.7184	468
232.462	66.2801	472
233.483	66.2801	472
234.006	66.1397	471
233.028	65.578	467
231.031	64.7355	461
232.028	64.7355	461
232.013	64.4546	459
231.99	64.1738	457
232.978	64.1738	457
232.942	63.8929	455
231.355	63.1908	450
232.328	63.1908	450
234.337	63.4716	452
237.397	64.0333	456
237.86	63.8929	455
239.368	64.0333	456
245.098	65.2971	465
249.808	66.2801	472
249.766	65.9993	470
248.647	65.4376	466
247.512	64.8759	462
247.435	64.595	460
248.969	64.7355	461
249.423	64.595	460
249.873	64.4546	459
249.772	64.1738	457
250.76	64.1738	457
252.85	64.4546	459
254.395	64.595	460
255.39	64.595	460
254.155	64.0333	456
255.14	64.0333	456
260.62	65.1567	464
262.75	65.4376	466
264.89	65.7184	468
266.469	65.8588	469
266.913	65.7184	468
265.062	65.0163	463
266.063	65.0163	463
267.064	65.0163	463
268.644	65.1567	464
269.647	65.1567	464
272.4	65.578	467
273.409	65.578	467
272.656	65.1567	464
278.377	66.2801	472
278.214	65.9993	470
277.447	65.578	467
276.668	65.1567	464
278.868	65.4376	466
280.476	65.578	467
280.28	65.2971	465
280.075	65.0163	463
281.076	65.0163	463
282.077	65.0163	463
281.855	64.7355	461
283.465	64.8759	462
284.464	64.8759	462
284.845	64.7355	461
284.601	64.4546	459
283.727	64.0333	456
285.337	64.1738	457
287.578	64.4546	459
-373.18	72.1483	506
-372.087	72.1483	506
-368.06	71.5779	502
-366.244	71.4353	501
-361.516	70.7224	496
-355.357	69.7243	489
-354.3	69.7243	489
-358.3	70.7224	496
-360.108	71.2927	500
-356.873	70.865	497
-353.651	70.4372	494
-352.583	70.4372	494
-350.092	70.1521	492
-349.738	70.2946	493
-350.087	70.5798	495
-346.197	70.0095	491
-336.7	68.2984	479
-335.665	68.2984	479
-336.026	68.5836	481
-339.862	69.5817	488
-341.584	70.1521	492
-343.289	70.7224	496
-344.286	71.1502	499
-343.896	71.2927	500
-342.815	71.2927	500
-342.417	71.4353	501
-342.016	71.5779	502
-336.856	70.7224	496
-336.46	70.865	497
-336.736	71.1502	499
-333.639	70.7224	496
-332.567	70.7224	496
-325.48	69.4391	487
-322.428	69.0114	484
-321.382	69.0114	484
-322.321	69.4391	487
-321.928	69.5817	488
-319.558	69.2965	486
-317.852	69.154	485
-316.804	69.154	485
-317.057	69.4391	487
-316.654	69.5817	488
-318.832	70.2946	493
-318.411	70.4372	494
-315.416	70.0095	491
-313.074	69.7243	489
-312.017	69.7243	489
-313.504	70.2946	493
-312.438	70.2946	493
-313.267	70.7224	496
-315.342	71.4353	501
-316.141	71.8631	504
-315.676	72.0057	505
-312.716	71.5779	502
-311.631	71.5779	502
-311.164	71.7205	503
-309.46	71.5779	502
-302.232	70.1521	492
-301.169	70.1521	492
-298.885	69.8669	490
-297.826	69.8669	490
-297.978	70.1521	492
-297.518	70.2946	493
-295.249	70.0095	491
-294.188	70.0095	491
-290.739	69.4391	487
-287.901	69.0114	484
-286.262	68.8688	483
-285.809	69.0114	484
-286.528	69.4391	487
-285.475	69.4391	487
-285.006	69.5817	488
-285.115	69.8669	490
-283.476	69.7243	489
-282.419	69.7243	489
-281.937	69.8669	490
-283.171	70.4372	494
-282.103	70.4372	494
-281.035	70.4372	494
-276.567	69.5817	488
-273.818	69.154	485
-272.207	69.0114	484
-272.282	69.2965	486
-272.905	69.7243	489
-270.18	69.2965	486
-268.022	69.0114	484
-266.424	68.8688	483
-266.479	69.154	485
-266.525	69.4391	487
-263.837	69.0114	484
-261.705	68.7262	482
-259.581	68.441	480
-260.16	68.8688	483
-263.944	70.1521	492
-265.552	70.865	497
-264.477	70.865	497
-261.813	70.4372	494
-258.634	69.8669	490
-252.844	68.5836	481
-250.757	68.2984	479
-253.892	69.4391	487
-255.954	70.2946	493
-255.923	70.5798	495
-254.338	70.4372	494
-250.194	69.5817	488
-248.628	69.4391	487
-248.084	69.5817	488
-246.523	69.4391	487
-242.95	68.7262	482
-240.402	68.2984	479
-238.867	68.1559	478
-241.317	69.154	485
-243.241	70.0095	491
-244.152	70.5798	495
-243.082	70.5798	495
-239.568	69.8669	490
-238.022	69.7243	489
-237.934	70.0095	491
-237.355	70.1521	492
-235.811	70.0095	491
-234.749	70.0095	491
-231.308	69.2965	486
-229.31	69.0114	484
-227.321	68.7262	482
-226.748	68.8688	483
-226.171	69.0114	484
-226.521	69.4391	487
-225.468	69.4391	487
-223.033	69.0114	484
-222.445	69.154	485
-221.853	69.2965	486
-221.711	69.5817	488
-217.943	68.7262	482
-215.551	68.2984	479
-216.307	68.8688	483
-215.709	69.0114	484
-215.993	69.4391	487
-215.382	69.5817	488
-213.887	69.4391	487
-212.835	69.4391	487
-210.042	68.8688	483
-207.7	68.441	480
-205.371	68.0133	477
-204.34	68.0133	477
-205.44	68.7262	482
-205.67	69.154	485
-204.2	69.0114	484
-201.894	68.5836	481
-200.854	68.5836	481
-200.646	68.8688	483
-199.188	68.7262	482
-198.146	68.7262	482
-195.877	68.2984	479
-194.842	68.2984	479
-194.616	68.5836	481
-195.186	69.154	485
-194.538	69.2965	486
-193.089	69.154	485
-192.04	69.154	485
-189.811	68.7262	482
-188.377	68.5836	481
-186.558	68.2984	479
-183.974	67.7281	475
-182.947	67.7281	475
-182.686	68.0133	477
-182.416	68.2984	479
-182.517	68.7262	482
-182.605	69.154	485
-181.93	69.2965	486
-182.369	69.8669	490
-182.419	70.2946	493
-182.457	70.7224	496
-180.288	70.2946	493
-177.041	69.4391	487
-173.097	68.2984	479
-170.625	67.7281	475
-169.955	67.8707	476
-171.056	68.7262	482
-170.366	68.8688	483
-168.271	68.441	480
-166.885	68.2984	479
-162.04	66.73	468
-161.717	67.0152	470
-162.752	67.8707	476
-162.063	68.0133	477
-160.694	67.8707	476
-159.665	67.8707	476
-159.636	68.2984	479
-159.594	68.7262	482
-158.552	68.7262	482
-159.471	69.5817	488
-156.468	68.7262	482
-153.169	67.7281	475
-149.9	66.73	468
-146.98	65.8745	462
-146.929	66.3022	465
-147.493	67.0152	470
-148.347	67.8707	476
-148.556	68.441	480
-148.133	68.7262	482
-148.922	69.5817	488
-148.473	69.8669	490
-147.414	69.8669	490
-146.056	69.7243	489
-144.702	69.5817	488
-141.881	68.7262	482
-139.963	68.2984	479
-139.217	68.441	480
-137.316	68.0133	477
-136.285	68.0133	477
-134.403	67.5855	474
-132.534	67.1578	471
-130.958	66.8726	469
-129.944	66.8726	469
-130.029	67.4429	473
-130.371	68.1559	478
-130.42	68.7262	482
-129.915	69.0114	484
-128.336	68.7262	482
-125.973	68.0133	477
-124.68	67.8707	476
-123.392	67.7281	475
-121.85	67.4429	473
-120.572	67.3003	472
-119.045	67.0152	470
-118.029	67.0152	470
-117.511	67.3003	472
-117.231	67.7281	475
-116.938	68.1559	478
-117.602	69.154	485
-117.034	69.4391	487
-115.981	69.4391	487
-113.749	68.7262	482
-112.473	68.5836	481
-111.665	68.7262	482
-110.623	68.7262	482
-108.217	67.8707	476
-106.062	67.1578	471
-104.375	66.73	468
-104.025	67.1578	471
-103.007	67.1578	471
-101.773	67.0152	470
-100.542	66.8726	469
-99.9528	67.1578	471
-100.195	68.0133	477
-99.5795	68.2984	479
-98.3384	68.1559	478
-97.1015	68.0133	477
-98.4872	69.7243	489
-96.4339	69.0114	484
-95.1906	68.8688	483
-93.7566	68.5836	481
-92.9096	68.7262	482
-91.4865	68.441	480
-89.6951	67.8707	476
-87.921	67.3003	472
-86.1642	66.73	468
-85.5165	67.0152	470
-85.2196	67.5855	474
-82.5963	66.3022	465
-80.1874	65.1616	457
-79.5461	65.4467	459
-80.0941	66.73	468
-79.9274	67.4429	473
-80.0726	68.441	480
-79.6936	69.0114	484
-78.8098	69.154	485
-77.1201	68.5836	481
-75.4476	68.0133	477
-73.7924	67.4429	473
-72.6161	67.3003	472
-70.989	66.73	468
-69.8278	66.5874	467
-68.6709	66.4448	466
-67.3732	66.1597	464
-66.7992	66.5874	467
-65.7897	66.5874	467
-65.3351	67.1578	471
-65.2728	68.1559	478
-64.1051	68.0133	477
-62.8095	67.7281	475
-61.9127	67.8707	476
-61.0117	68.0133	477
-60.3578	68.441	480
-59.4437	68.5836	481
-58.0397	68.1559	478
-56.8871	68.0133	477
-56.0902	68.2984	479
-55.0547	68.2984	479
-54.132	68.441	480
-52.8732	68.1559	478
-51.2976	67.4429	473
-50.2751	67.4429	473
-49.0444	67.1578	471
-47.8223	66.8726	469
-46.8084	66.8726	469
-45.3064	66.1597	464
-44.3033	66.1597	464
-43.4869	66.4448	466
-42.5707	66.5874	467
-41.4722	66.4448	466
-39.5097	64.8764	455
-38.7801	65.3042	458
-38.0376	65.7319	461
-37.2821	66.1597	464
-36.2009	66.0171	463
-35.124	65.8745	462
-34.1252	65.8745	462
-33.3416	66.3022	465
-32.7537	67.1578	471
-32.1398	68.0133	477
-31.1087	68.0133	477
-30.1406	68.1559	478
-28.9855	67.8707	476
-28.0152	68.0133	477
-26.9841	68.0133	477
-25.8986	67.8707	476
-24.8696	67.8707	476
-23.7404	67.5855	474
-22.3803	66.5874	467
-21.325	66.4448	466
-20.2741	66.3022	465
-19.4346	66.8726	469
-18.5779	67.4429	473
-17.6667	67.8707	476
-16.6727	68.0133	477
-15.5432	67.5855	474
-14.3041	66.5874	467
-13.2662	66.4448	466
-12.2588	66.4448	466
-11.2273	66.3022	465
-10.1781	66.0171	463
-9.11779	65.5893	460
-8.12341	65.5893	460
-7.14452	65.7319	461
-6.20131	66.3022	465
-5.17376	66.0171	463
-4.15486	65.7319	461
-3.16516	65.8745	462
-2.17114	66.0171	463
-1.17532	66.3022	465
-0.17049	66.4448	466
0.844052	67.0152	470
1.86006	67.0152	470
2.8883	67.3003	472
3.92519	67.5855	474
4.96029	67.7281	475
5.94929	67.3003	472
6.91056	66.73	468
7.87146	66.3022	465
8.93392	66.73	468
9.9456	66.73	468
10.9573	66.73	468
11.9945	66.8726	469
13.0084	66.8726	469
14.082	67.1578	471
15.3567	68.2984	479
16.4606	68.5836	481
17.4276	68.2984	479
18.2703	67.5855	474
19.0507	66.73	468
19.8481	66.0171	463
20.8039	65.8745	462
21.897	66.1597	464
22.9988	66.4448	466
24.1607	66.8726	469
25.4429	67.5855	474
26.5792	67.8707	476
27.3182	67.1578	471
28.2762	67.0152	470
29.2922	67.0152	470
30.4372	67.3003	472
31.5908	67.5855	474
32.4779	67.3003	472
33.4982	67.3003	472
34.5185	67.3003	472
35.6141	67.4429	473
36.4817	67.1578	471
37.3407	66.8726	469
37.9456	66.1597	464
38.8647	66.0171	463
40.3822	66.8726	469
41.6608	67.3003	472
42.4099	66.8726	469
42.9608	66.1597	464
44.3428	66.73	468
45.0638	66.3022	465
45.7717	65.8745	462
46.568	65.5893	460
48.2861	66.5874	467
49.1901	66.4448	466
49.982	66.1597	464
50.9851	66.1597	464
51.652	65.7319	461
53.1053	66.3022	465
54.576	66.8726	469
55.2343	66.4448	466
56.0002	66.1597	464
56.5119	65.5893	460
57.5063	65.5893	460
58.8822	66.0171	463
60.1417	66.3022	465
62.1989	67.4429	473
63.8897	68.1559	478
64.923	68.1559	478
64.0245	66.1597	464
65.448	66.5874	467
67.3114	67.4429	473
69.3451	68.441	480
70.9693	69.0114	484
72.4619	69.4391	487
73.2128	69.154	485
73.0363	68.0133	477
73.6016	67.5855	474
74.1539	67.1578	471
75.3317	67.3003	472
76.5138	67.4429	473
77.0445	67.0152	470
77.8944	66.8726	469
78.74	66.73	468
79.7517	66.73	468
81.1085	67.0152	470
81.9498	66.8726	469
82.7868	66.73	468
84.3356	67.1578	471
85.7162	67.4429	473
87.6556	68.1559	478
89.6166	68.8688	483
90.6607	68.8688	483
90.9454	68.2984	479
90.8287	67.4429	473
90.4918	66.4448	466
91.4992	66.4448	466
92.9036	66.73	468
93.9153	66.73	468
94.9269	66.73	468
96.1436	66.8726	469
96.7431	66.5874	467
97.334	66.3022	465
98.1277	66.1597	464
98.7035	65.8745	462
99.4864	65.7319	461
100.919	66.0171	463
102.8	66.5874	467
104.254	66.8726	469
105.268	66.8726	469
106.055	66.73	468
107.296	66.8726	469
107.617	66.4448	466
108.624	66.4448	466
109.632	66.4448	466
111.114	66.73	468
112.605	67.0152	470
113.137	66.73	468
113.661	66.4448	466
114.915	66.5874	467
116.172	66.73	468
116.182	66.1597	464
116.68	65.8745	462
117.934	66.0171	463
119.962	66.5874	467
121.749	67.0152	470
120.153	65.5893	460
120.884	65.4467	459
122.407	65.7319	461
123.939	66.0171	463
123.86	65.4467	459
124.309	65.1616	457
124.748	64.8764	455
125.455	64.7338	454
126.994	65.019	456
127.98	65.019	456
130.097	65.5893	460
132.801	66.4448	466
134.957	67.0152	470
136.262	67.1578	471
137.28	67.1578	471
138.298	67.1578	471
139.612	67.3003	472
139.739	66.8726	469
139.252	66.1597	464
139.651	65.8745	462
141.563	66.3022	465
142.568	66.3022	465
142.956	66.0171	463
144.267	66.1597	464
144.644	65.8745	462
143.121	64.7338	454
143.468	64.4486	452
144.764	64.5912	453
147.674	65.4467	459
149.638	65.8745	462
150.637	65.8745	462
151.635	65.8745	462
152.634	65.8745	462
153.633	65.8745	462
154.631	65.8745	462
155.63	65.8745	462
156.29	65.7319	461
157.628	65.8745	462
158.626	65.8745	462
157.897	65.1616	457
159.581	65.4467	459
161.273	65.7319	461
163.325	66.1597	464
165.036	66.4448	466
166.044	66.4448	466
167.051	66.4448	466
166.255	65.7319	461
165.438	65.019	456
166.789	65.1616	457
167.042	64.8764	455
168.395	65.019	456
170.867	65.5893	460
171.861	65.5893	460
173.231	65.7319	461
174.606	65.8745	462
174.084	65.3042	458
172.016	64.1635	450
171.835	63.7357	447
173.188	63.8783	448
174.157	63.8783	448
177.08	64.5912	453
180.024	65.3042	458
182.595	65.8745	462
183.991	66.0171	463
184.992	66.0171	463
185.591	65.8745	462
184.571	65.1616	457
184.341	64.7338	454
185.73	64.8764	455
187.535	65.1616	457
190.173	65.7319	461
191.584	65.8745	462
191.332	65.4467	459
191.067	65.019	456
190.789	64.5912	453
191.769	64.5912	453
194.45	65.1616	457
196.293	65.4467	459
196.855	65.3042	458
193.958	64.0209	449
197.967	65.019	456
202.443	66.1597	464
203.446	66.1597	464
202.246	65.4467	459
201.467	64.8764	455
202.451	64.8764	455
202.54	64.5912	453
203.969	64.7338	454
205.402	64.8764	455
208.2	65.4467	459
208.736	65.3042	458
208.81	65.019	456
208.876	64.7338	454
209.395	64.5912	453
211.303	64.8764	455
214.153	65.4467	459
216.083	65.7319	461
216.608	65.5893	460
217.13	65.4467	459
218.597	65.5893	460
219.592	65.5893	460
221.066	65.7319	461
220.617	65.3042	458
219.672	64.7338	454
221.625	65.019	456
223.587	65.3042	458
228.5	66.4448	466
230.492	66.73	468
230.515	66.4448	466
227.051	65.1616	457
227.041	64.8764	455
228.024	64.8764	455
230.014	65.1616	457
229.991	64.8764	455
228.944	64.3061	451
228.39	63.8783	448
228.334	63.5931	446
229.813	63.7357	447
231.812	64.0209	449
236.411	65.019	456
236.356	64.7338	454
235.246	64.1635	450
236.219	64.1635	450
240.354	65.019	456
243.986	65.7319	461
244.451	65.5893	460
243.845	65.1616	457
242.154	64.4486	452
242.056	64.1635	450
244.108	64.4486	452
245.086	64.4486	452
246.607	64.5912	453
247.586	64.5912	453
248.017	64.4486	452
248.443	64.3061	451
248.865	64.1635	450
249.283	64.0209	449
250.81	64.1635	450
251.783	64.1635	450
254.441	64.5912	453
257.676	65.1616	457
261.494	65.8745	462
262.492	65.8745	462
262.35	65.5893	460
260.482	64.8764	455
261.466	64.8764	455
263.026	65.019	456
265.749	65.4467	459
267.903	65.7319	461
268.9	65.7319	461
268.14	65.3042	458
270.305	65.5893	460
270.12	65.3042	458
277.622	66.8726	469
275.071	66.0171	463
276.072	66.0171	463
277.671	66.1597	464
278.074	66.0171	463
277.266	65.5893	460
274.631	64.7338	454
273.184	64.1635	450
274.766	64.3061	451
276.964	64.5912	453
278.557	64.7338	454
279.538	64.7338	454
278.666	64.3061	451
277.161	63.7357	447
279.371	64.0209	449
280.342	64.0209	449
281.313	64.0209	449
-364.33	71.505	494
-363.262	71.505	494
-361.461	71.3603	493
-354.547	70.2023	485
-347.668	69.0443	477
-351.724	70.0575	484
-350.678	70.0575	484
-354.688	71.0708	491
-355.067	71.3603	493
-352.565	71.0708	491
-348.64	70.4918	487
-346.874	70.347	486
-345.823	70.347	486
-345.482	70.4918	487
-343.722	70.347	486
-340.556	69.9128	483
-332.483	68.4653	473
-331.46	68.4653	473
-332.534	68.8996	476
-334.29	69.4786	480
-337.418	70.347	486
-339.136	70.926	490
-340.837	71.505	494
-341.144	71.7945	496
-340.072	71.7945	496
-336.95	71.3603	493
-335.203	71.2155	492
-333.46	71.0708	491
-332.398	71.0708	491
-329.987	70.7813	489
-324.894	69.9128	483
-323.85	69.9128	483
-318.796	69.0443	477
-316.433	68.7548	475
-316.734	69.0443	477
-316.365	69.1891	478
-315.991	69.3338	479
-315.613	69.4786	480
-313.92	69.3338	479
-312.885	69.3338	479
-311.849	69.3338	479
-314.058	70.0575	484
-315.599	70.6365	488
-315.188	70.7813	489
-314.774	70.926	490
-312.434	70.6365	488
-309.465	70.2023	485
-306.509	69.7681	482
-310.537	70.926	490
-309.477	70.926	490
-310.306	71.3603	493
-311.123	71.7945	496
-310.675	71.9393	497
-306.486	71.2155	492
-304.181	70.926	490
-303.122	70.926	490
-299.597	70.347	486
-299.161	70.4918	487
-297.496	70.347	486
-295.835	70.2023	485
-294.787	70.2023	485
-292.527	69.9128	483
-290.276	69.6233	481
-286.831	69.0443	477
-284.002	68.6101	474
-284.769	69.0443	477
-284.927	69.3338	479
-283.892	69.3338	479
-282.856	69.3338	479
-283.586	69.7681	482
-284.302	70.2023	485
-285.006	70.6365	488
-283.951	70.6365	488
-281.737	70.347	486
-277.799	69.6233	481
-275.033	69.1891	478
-272.853	68.8996	476
-271.824	68.8996	476
-271.933	69.1891	478
-270.899	69.1891	478
-270.431	69.3338	479
-269.958	69.4786	480
-267.799	69.1891	478
-266.208	69.0443	477
-264.065	68.7548	475
-261.931	68.4653	473
-260.908	68.4653	473
-260.435	68.6101	474
-259.958	68.7548	475
-259.476	68.8996	476
-257.361	68.6101	474
-255.255	68.3206	472
-254.235	68.3206	472
-255.36	68.8996	476
-258.071	69.9128	483
-258.092	70.2023	485
-258.103	70.4918	487
-257.05	70.4918	487
-251.792	69.3338	479
-248.139	68.6101	474
-249.721	69.3338	479
-250.763	69.9128	483
-251.787	70.4918	487
-249.704	70.2023	485
-247.118	69.7681	482
-245.565	69.6233	481
-245.542	69.9128	483
-243.992	69.7681	482
-240.934	69.1891	478
-238.395	68.7548	475
-236.868	68.6101	474
-234.351	68.1758	471
-238.287	69.6233	481
-241.193	70.7813	489
-241.609	71.2155	492
-237.612	70.347	486
-234.128	69.6233	481
-234.057	69.9128	483
-233.495	70.0575	484
-231.969	69.9128	483
-230.447	69.7681	482
-228.453	69.4786	480
-226.941	69.3338	479
-225.434	69.1891	478
-223.462	68.8996	476
-223.368	69.1891	478
-223.73	69.6233	481
-222.227	69.4786	480
-219.807	69.0443	477
-218.776	69.0443	477
-218.201	69.1891	478
-217.622	69.3338	479
-214.326	68.6101	474
-210.151	67.5968	467
-207.798	67.1626	464
-208.578	67.7416	468
-208.897	68.1758	471
-208.32	68.3206	472
-208.178	68.6101	474
-207.153	68.6101	474
-205.694	68.4653	473
-202.075	67.5968	467
-199.774	67.1626	464
-197.486	66.7284	461
-196.915	66.8731	462
-197.189	67.3074	465
-196.606	67.4521	466
-196.857	67.8863	469
-195.844	67.8863	469
-195.245	68.0311	470
-194.229	68.0311	470
-194.446	68.4653	473
-193.833	68.6101	474
-191.995	68.3206	472
-190.974	68.3206	472
-189.954	68.3206	472
-189.734	68.6101	474
-190.302	69.1891	478
-188.873	69.0443	477
-187.448	68.8996	476
-184.069	68.0311	470
-181.885	67.5968	467
-179.326	67.0179	463
-179.095	67.3074	465
-180.771	68.3206	472
-180.512	68.6101	474
-178.73	68.3206	472
-178.087	68.4653	473
-178.936	69.1891	478
-179.019	69.6233	481
-178.349	69.7681	482
-177.307	69.7681	482
-173.705	68.7548	475
-169.407	67.4521	466
-168.399	67.4521	466
-170.266	68.6101	474
-170.312	69.0443	477
-168.571	68.7548	475
-166.486	68.3206	472
-163.012	67.3074	465
-160.265	66.5836	460
-159.963	66.8731	462
-160.341	67.4521	466
-160.701	68.0311	470
-160.704	68.4653	473
-158.669	68.0311	470
-157.988	68.1758	471
-157.637	68.4653	473
-155.952	68.1758	471
-152.96	67.3074	465
-151.301	67.0179	463
-149.976	66.8731	462
-147.365	66.1494	457
-147.978	66.8731	462
-145.707	66.2941	458
-145.349	66.5836	460
-145.924	67.3074	465
-145.542	67.5968	467
-145.151	67.8863	469
-145.674	68.6101	474
-147.091	69.7681	482
-146.655	70.0575	484
-146.511	70.4918	487
-146.354	70.926	490
-144.109	70.347	486
-140.704	69.1891	478
-137.917	68.3206	472
-136.607	68.1758	471
-135.301	68.0311	470
-133.713	67.7416	468
-131.851	67.3074	465
-130.564	67.1626	464
-129.841	67.3074	465
-129.667	67.7416	468
-128.655	67.7416	468
-128.461	68.1758	471
-126.902	67.8863	469
-126.157	68.0311	470
-124.874	67.8863	469
-122.804	67.3074	465
-121.799	67.3074	465
-121.054	67.4521	466
-119.531	67.1626	464
-118.017	66.8731	462
-116.765	66.7284	461
-116.271	67.0179	463
-115.768	67.3074	465
-115.503	67.7416	468
-114.247	67.5968	467
-112.752	67.3074	465
-110.786	66.7284	461
-109.789	66.7284	461
-108.793	66.7284	461
-108.03	66.8731	462
-107.726	67.3074	465
-107.18	67.5968	467
-106.853	68.0311	470
-104.26	67.0179	463
-103.036	66.8731	462
-102.038	66.8731	462
-101.476	67.1626	464
-100.04	66.8731	462
-98.3984	66.4389	459
-98.0428	66.8731	462
-97.4642	67.1626	464
-96.877	67.4521	466
-96.2811	67.7416	468
-95.473	67.8863	469
-93.6535	67.3074	465
-92.0506	66.8731	462
-93.0227	68.3206	472
-91.6125	68.0311	470
-88.6689	66.5836	460
-89.3899	67.8863	469
-87.6223	67.3074	465
-85.1269	66.1494	457
-83.0343	65.2809	451
-81.5136	64.8466	448
-80.5451	64.8466	448
-80.1095	65.2809	451
-79.3101	65.4256	452
-78.6796	65.7151	454
-78.3827	66.2941	458
-78.4065	67.1626	464
-78.5712	68.1758	471
-78.3764	68.8996	476
-77.3474	68.8996	476
-75.9977	68.6101	474
-73.8659	67.5968	467
-72.7003	67.4521	466
-71.8468	67.5968	467
-70.2306	67.0179	463
-68.9306	66.7284	461
-67.9341	66.7284	461
-66.9376	66.7284	461
-65.941	66.7284	461
-65.3671	67.1626	464
-65.4738	68.3206	472
-64.9997	68.8996	476
-64.2395	69.1891	478
-62.9417	68.8996	476
-61.6526	68.6101	474
-60.6279	68.6101	474
-59.6033	68.6101	474
-58.3315	68.3206	472
-57.4326	68.4653	473
-56.1715	68.1758	471
-55.0363	68.0311	470
-54.0203	68.0311	470
-52.4404	67.3074	465
-51.5458	67.4521	466
-50.6469	67.5968	467
-49.6374	67.5968	467
-48.5237	67.4521	466
-47.4144	67.3074	465
-46.01	66.7284	461
-44.8181	66.4389	459
-43.5395	66.0046	456
-42.1805	65.4256	452
-41.568	66.0046	456
-40.0483	65.1361	450
-39.0755	65.1361	450
-38.3568	65.5704	453
-37.7901	66.2941	458
-36.8803	66.4389	459
-35.8881	66.4389	459
-34.8199	66.2941	458
-33.7559	66.1494	457
-32.9114	66.4389	459
-31.7801	66.1494	457
-30.7922	66.1494	457
-29.9347	66.4389	459
-29.1947	67.0179	463
-28.3157	67.3074	465
-27.4867	67.7416	468
-26.5315	67.8863	469
-25.5177	67.8863	469
-24.4516	67.7416	468
-23.2897	67.3074	465
-22.1886	67.0179	463
-21.0962	66.7284	461
-20.0561	66.5836	460
-19.2689	67.3074	465
-18.4601	68.0311	470
-17.5183	68.3206	472
-16.428	68.0311	470
-15.3793	67.8863	469
-14.3041	67.5968	467
-13.2092	67.1626	464
-12.1799	67.0179	463
-11.1066	66.5836	460
-10.0682	66.2941	458
-8.97905	65.5704	453
-7.99979	65.5704	453
-7.00503	65.4256	452
-6.06795	65.8599	455
-5.09554	66.0046	456
-4.1098	66.0046	456
-3.13091	66.1494	457
-2.15707	66.5836	460
-1.16521	66.7284	461
-0.169393	67.0179	463
0.829686	66.8731	462
1.82048	66.5836	460
2.79039	66.0046	456
3.73473	65.2809	451
4.69922	65.1361	450
5.73502	65.8599	455
6.82196	66.8731	462
7.78682	66.5836	460
8.78121	66.5836	460
9.77559	66.5836	460
10.6997	66.1494	457
11.6365	65.8599	455
12.6478	66.0046	456
13.6037	65.8599	455
14.6193	66.0046	456
15.9473	67.4521	466
17.2457	68.6101	474
18.0391	67.7416	468
18.8472	67.0179	463
19.7195	66.5836	460
20.4887	65.8599	455
21.4723	65.8599	455
22.5052	66.0046	456
23.7486	66.7284	461
25.0672	67.5968	467
26.0767	67.5968	467
27.0282	67.4521	466
28.0356	67.4521	466
28.9806	67.3074	465
29.7279	66.7284	461
30.4578	66.1494	457
31.5145	66.2941	458
32.8595	67.0179	463
33.9335	67.1626	464
34.9365	67.1626	464
35.9395	67.1626	464
36.8629	67.0179	463
37.8638	67.0179	463
38.7808	66.8731	462
39.7795	66.8731	462
40.8664	67.0179	463
41.4152	66.2941	458
42.0349	65.7151	454
42.7321	65.2809	451
43.8039	65.4256	452
44.781	65.4256	452
45.4544	64.9914	449
47.1488	66.0046	456
48.4512	66.4389	459
49.6589	66.7284	461
50.6554	66.7284	461
51.3158	66.2941	458
52.3059	66.2941	458
53.5287	66.5836	460
54.4046	66.4389	459
55.3968	66.4389	459
56.1433	66.1494	457
57.5063	66.5836	460
59.0093	67.1626	464
60.2711	67.4521	466
61.4099	67.5968	467
62.2858	67.4521	466
62.8857	67.0179	463
63.6106	66.7284	461
64.6071	66.7284	461
65.4614	66.5836	460
67.6115	67.7416	468
68.6232	67.7416	468
69.3373	67.4521	466
69.137	66.2941	458
71.352	67.4521	466
72.3594	67.4521	466
72.8944	67.0179	463
73.2569	66.4389	459
74.2491	66.4389	459
74.9135	66.1494	457
76.8979	67.0179	463
77.5623	66.7284	461
78.3884	66.5836	460
79.5554	66.7284	461
81.2509	67.3074	465
82.2561	67.3074	465
83.0822	67.1626	464
84.9913	67.8863	469
87.2888	68.8996	476
89.4311	69.7681	482
90.2853	69.6233	481
90.5656	69.0443	477
88.7164	66.8731	462
89.3267	66.5836	460
90.3211	66.5836	460
92.9036	67.7416	468
93.9153	67.7416	468
94.5213	67.4521	466
94.7086	66.8731	462
95.0859	66.4389	459
95.4501	66.0046	456
97.4933	66.7284	461
98.4898	66.7284	461
99.2706	66.5836	460
100.701	66.8731	462
102.14	67.1626	464
102.698	66.8731	462
103.697	66.8731	462
104.469	66.7284	461
106.152	67.1626	464
106.231	66.5836	460
106.526	66.1494	457
106.103	65.2809	451
107.553	65.5704	453
108.532	65.5704	453
109.028	65.2809	451
110.734	65.7151	454
110.977	65.2809	451
112.945	65.8599	455
114.93	66.4389	459
116.428	66.7284	461
117.679	66.8731	462
119.448	67.3074	465
120.713	67.4521	466
119.108	66.0046	456
118.25	64.9914	449
118.955	64.8466	448
121.262	65.5704	453
121.972	65.4256	452
122.133	64.9914	449
122.829	64.8466	448
124.35	65.1361	450
126.437	65.7151	454
127.699	65.8599	455
129.248	66.1494	457
131.091	66.5836	460
133.234	67.1626	464
133.948	67.0179	463
134.657	66.8731	462
136.537	67.3074	465
137.838	67.4521	466
137.653	66.8731	462
138.052	66.5836	460
139.046	66.5836	460
140.041	66.5836	460
140.728	66.4389	459
142.029	66.5836	460
137.116	63.8334	441
139.009	64.2677	444
140.599	64.5572	446
141.246	64.4124	445
142.527	64.5572	446
143.491	64.5572	446
144.132	64.4124	445
144.768	64.2677	444
147.04	64.8466	448
149.661	65.5704	453
151.305	65.8599	455
151.954	65.7151	454
151.588	65.1361	450
151.543	64.7019	447
153.533	65.1361	450
154.163	64.9914	449
155.133	64.9914	449
157.147	65.4256	452
158.824	65.7151	454
160.509	66.0046	456
163.266	66.7284	461
164.618	66.8731	462
164.542	66.4389	459
163.37	65.5704	453
163.987	65.4256	452
164.964	65.4256	452
165.941	65.4256	452
167.656	65.7151	454
167.895	65.4256	452
169.246	65.5704	453
170.977	65.8599	455
171.204	65.5704	453
169.903	64.7019	447
170.869	64.7019	447
171.835	64.7019	447
172.802	64.7019	447
173.768	64.7019	447
174.734	64.7019	447
175.701	64.7019	447
177.457	64.9914	449
179.62	65.4256	452
181.796	65.8599	455
181.173	65.2809	451
180.936	64.8466	448
180.28	64.2677	444
182.056	64.5572	446
184.662	65.1361	450
186.872	65.5704	453
189.096	66.0046	456
188.831	65.5704	453
188.553	65.1361	450
188.684	64.8466	448
190.075	64.9914	449
191.897	65.2809	451
193.299	65.4256	452
191.698	64.5572	446
191.798	64.2677	444
191.889	63.9782	442
194.154	64.4124	445
197.308	65.1361	450
198.721	65.2809	451
199.254	65.1361	450
198.891	64.7019	447
198.069	64.1229	443
199.476	64.2677	444
200.887	64.4124	445
202.757	64.7019	447
204.634	64.9914	449
206.521	65.2809	451
207.036	65.1361	450
206.622	64.7019	447
207.588	64.7019	447
208.554	64.7019	447
209.521	64.7019	447
210.958	64.8466	448
211.926	64.8466	448
214.32	65.2809	451
215.773	65.4256	452
217.229	65.5704	453
218.209	65.5704	453
216.769	64.8466	448
218.709	65.1361	450
221.146	65.5704	453
222.616	65.7151	454
226.06	66.4389	459
224.579	65.7151	454
223.573	65.1361	450
224.546	65.1361	450
225.518	65.1361	450
226.491	65.1361	450
227.464	65.1361	450
227.929	64.9914	449
227.88	64.7019	447
227.822	64.4124	445
228.784	64.4124	445
231.812	64.9914	449
233.819	65.2809	451
232.712	64.7019	447
232.109	64.2677	444
233.594	64.4124	445
237.192	65.1361	450
240.281	65.7151	454
241.263	65.7151	454
239.576	64.9914	449
238.404	64.4124	445
239.366	64.4124	445
241.408	64.7019	447
242.917	64.8466	448
243.885	64.8466	448
244.307	64.7019	447
245.273	64.7019	447
245.138	64.4124	445
246.1	64.4124	445
247.617	64.5572	446
249.696	64.8466	448
250.105	64.7019	447
251.633	64.8466	448
253.729	65.1361	450
258.098	66.0046	456
258.515	65.8599	455
257.788	65.4256	452
258.765	65.4256	452
259.742	65.4256	452
262.449	65.8599	455
265.17	66.2941	458
266.16	66.2941	458
264.234	65.5704	453
265.213	65.5704	453
265.017	65.2809	451
265.402	65.1361	450
264.007	64.5572	446
264.377	64.4124	445
267.128	64.8466	448
269.892	65.2809	451
272.068	65.5704	453
271.841	65.2809	451
271.002	64.8466	448
271.363	64.7019	447
270.502	64.2677	444
271.461	64.2677	444
271.194	63.9782	442
272.15	63.9782	442
272.487	63.8334	441
272.82	63.6887	440
273.772	63.6887	440
276.596	64.1229	443
277.553	64.1229	443
-352.53	70.2223	478
-351.497	70.2223	478
-349.73	70.0754	477
-338.465	68.0186	463
-341.837	68.9001	469
-345.91	69.9284	476
-344.881	69.9284	476
-348.186	70.8099	482
-349.305	71.2506	485
-349.693	71.5444	487
-348.64	71.5444	487
-346.874	71.3975	486
-345.823	71.3975	486
-344.063	71.2506	485
-340.893	70.8099	482
-337.031	70.2223	478
-333.186	69.6346	474
-331.46	69.4877	473
-330.438	69.4877	473
-332.201	70.0754	477
-333.253	70.5161	480
-331.523	70.3692	479
-331.177	70.5161	480
-333.579	71.2506	485
-332.53	71.2506	485
-334.216	71.8383	489
-332.477	71.6913	488
-328.027	70.9568	483
-323.598	70.2223	478
-322.564	70.2223	478
-319.513	69.7815	475
-318.486	69.7815	475
-314.786	69.1939	471
-313.102	69.047	470
-313.414	69.3408	472
-312.393	69.3408	472
-312.033	69.4877	473
-311.01	69.4877	473
-311.299	69.7815	475
-310.272	69.7815	475
-309.245	69.7815	475
-310.165	70.2223	478
-311.718	70.8099	482
-314.544	71.6913	488
-314.774	71.9852	490
-312.434	71.6913	488
-307.551	70.8099	482
-302.693	69.9284	476
-304.199	70.5161	480
-303.162	70.5161	480
-304.642	71.1037	484
-304.85	71.3975	486
-301.924	70.9568	483
-296.519	69.9284	476
-295.49	69.9284	476
-294.461	69.9284	476
-295.282	70.3692	479
-295.475	70.663	481
-292.599	70.2223	478
-291.565	70.2223	478
-288.101	69.6346	474
-287.076	69.6346	474
-284.241	69.1939	471
-279.615	68.3125	465
-278.011	68.1655	464
-278.202	68.4594	466
-278.384	68.7532	468
-277.372	68.7532	468
-278.132	69.1939	471
-280.056	69.9284	476
-281.371	70.5161	480
-282.67	71.1037	484
-281.042	70.9568	483
-277.099	70.2223	478
-274.333	69.7815	475
-272.731	69.6346	474
-271.133	69.4877	473
-270.111	69.4877	473
-269.088	69.4877	473
-268.066	69.4877	473
-268.172	69.7815	475
-267.146	69.7815	475
-265.559	69.6346	474
-263.418	69.3408	472
-260.73	68.9001	469
-259.162	68.7532	468
-257.599	68.6063	467
-256.589	68.6063	467
-254.485	68.3125	465
-252.39	68.0186	463
-250.846	67.8717	462
-249.306	67.7248	461
-248.31	67.7248	461
-248.923	68.1655	464
-252.728	69.4877	473
-253.834	70.0754	477
-253.333	70.2223	478
-251.772	70.0754	477
-247.587	69.1939	471
-243.951	68.4594	466
-243.987	68.7532	468
-244.533	69.1939	471
-245.065	69.6346	474
-245.585	70.0754	477
-244.554	70.0754	477
-243.013	69.9284	476
-241.475	69.7815	475
-239.942	69.6346	474
-237.909	69.3408	472
-235.885	69.047	470
-233.87	68.7532	468
-231.863	68.4594	466
-231.847	68.7532	468
-232.315	69.1939	471
-231.296	69.1939	471
-228.811	68.7532	468
-225.853	68.1655	464
-226.304	68.6063	467
-228.671	69.6346	474
-227.166	69.4877	473
-228.056	70.0754	477
-227.025	70.0754	477
-225.994	70.0754	477
-223.548	69.6346	474
-221.115	69.1939	471
-220.097	69.1939	471
-219.544	69.3408	472
-217.134	68.9001	469
-216.12	68.9001	469
-215.107	68.9001	469
-215.462	69.3408	472
-213.988	69.1939	471
-211.161	68.6063	467
-208.801	68.1655	464
-206.455	67.7248	461
-207.241	68.3125	465
-205.792	68.1655	464
-205.23	68.3125	465
-205.543	68.7532	468
-204.094	68.6063	467
-200.91	67.8717	462
-200.344	68.0186	463
-201.927	68.9001	469
-199.628	68.4594	466
-196.915	67.8717	462
-195.069	67.5779	460
-195.762	68.1655	464
-195.178	68.3125	465
-191.25	67.2841	458
-189.014	66.8434	455
-188.857	67.1372	457
-191.569	68.4594	466
-189.335	68.0186	463
-187.113	67.5779	460
-186.524	67.7248	461
-187.539	68.4594	466
-188.934	69.3408	472
-186.321	68.7532	468
-183.329	68.0186	463
-182.722	68.1655	464
-182.503	68.4594	466
-180.716	68.1655	464
-178.939	67.8717	462
-176.784	67.431	459
-174.26	66.8434	455
-175.181	67.5779	460
-175.701	68.1655	464
-175.827	68.6063	467
-175.192	68.7532	468
-176.042	69.4877	473
-172.799	68.6063	467
-167.743	66.9903	456
-165.294	66.4026	452
-163.954	66.2557	451
-162.979	66.2557	451
-164.518	67.2841	458
-168.527	69.3408	472
-166.087	68.7532	468
-162.959	67.8717	462
-161.259	67.5779	460
-159.568	67.2841	458
-158.578	67.2841	458
-159.308	68.0186	463
-159.675	68.6063	467
-158.326	68.4594	466
-155.631	67.7248	461
-154.634	67.7248	461
-153.971	67.8717	462
-151.648	67.2841	458
-148.684	66.4026	452
-146.4	65.815	448
-145.431	65.815	448
-146.397	66.6965	454
-143.815	65.9619	449
-143.162	66.1088	450
-144.401	67.1372	457
-142.472	66.6965	454
-141.49	66.6965	454
-141.128	66.9903	456
-141.986	67.8717	462
-144.344	69.4877	473
-142.11	68.9001	469
-140.494	68.6063	467
-139.783	68.7532	468
-137.882	68.3125	465
-135.111	67.431	459
-134.703	67.7248	461
-134.577	68.1655	464
-133.574	68.1655	464
-131.999	67.8717	462
-130.433	67.5779	460
-129.439	67.5779	460
-128.724	67.7248	461
-128.558	68.1655	464
-127.83	68.3125	465
-126.007	67.8717	462
-124.737	67.7248	461
-124.009	67.8717	462
-122.744	67.7248	461
-120.427	66.9903	456
-119.18	66.8434	455
-118.196	66.8434	455
-117.47	66.9903	456
-116.484	66.9903	456
-114.739	66.5496	453
-114.513	66.9903	456
-114.274	67.431	459
-114.516	68.1655	464
-113.024	67.8717	462
-109.842	66.5496	453
-107.662	65.815	448
-106.931	65.9619	449
-107.377	66.8434	455
-107.095	67.2841	458
-106.568	67.5779	460
-106.033	67.8717	462
-104.352	67.431	459
-102.234	66.6965	454
-100.806	66.4026	452
-97.8413	65.0805	443
-97.3211	65.3743	445
-98.0914	66.5496	453
-96.6834	66.2557	451
-95.4963	66.1088	450
-96.2039	67.2841	458
-95.8375	67.7248	461
-94.6352	67.5779	460
-93.8444	67.7248	461
-91.6394	66.8434	455
-90.0581	66.4026	452
-87.5044	65.2274	444
-86.1547	64.9336	442
-87.1268	66.4026	452
-86.7215	66.8434	455
-85.9264	66.9903	456
-84.5681	66.6965	454
-83.2185	66.4026	452
-81.5136	65.815	448
-80.1855	65.5212	446
-80.1095	66.2557	451
-79.3101	66.4026	452
-78.333	66.4026	452
-77.8693	66.8434	455
-77.7306	67.5779	460
-77.0699	67.8717	462
-75.5772	67.431	459
-74.0975	66.9903	456
-73.1117	66.9903	456
-72.6005	67.431	459
-71.9203	67.7248	461
-70.7699	67.5779	460
-69.4721	67.2841	458
-68.0335	66.8434	455
-67.1973	66.9903	456
-66.2115	66.9903	456
-65.2258	66.9903	456
-64.8036	67.5779	460
-63.1156	66.8434	455
-62.8148	67.5779	460
-61.9548	67.7248	461
-61.0905	67.8717	462
-60.0918	67.8717	462
-59.221	68.0186	463
-58.4716	68.3125	465
-56.972	67.7248	461
-56.0969	67.8717	462
-55.456	68.3125	465
-54.4508	68.3125	465
-53.3307	68.1655	464
-51.7637	67.431	459
-50.5503	67.1372	457
-49.3455	66.8434	455
-48.8933	67.5779	460
-47.899	67.5779	460
-46.8026	67.431	459
-45.3114	66.6965	454
-44.037	66.2557	451
-42.9666	66.1088	450
-41.3406	65.0805	443
-40.7476	65.6681	447
-39.6923	65.5212	446
-38.815	65.6681	447
-37.8487	65.6681	447
-36.9649	65.815	448
-36.0768	65.9619	449
-35.2626	66.2557	451
-34.2877	66.2557	451
-33.2389	66.1088	450
-32.4812	66.5496	453
-31.7106	66.9903	456
-30.5901	66.6965	454
-29.6087	66.6965	454
-28.6272	66.6965	454
-27.7676	66.9903	456
-26.8993	67.2841	458
-25.9093	67.2841	458
-24.8104	66.9903	456
-23.7724	66.8434	455
-22.7387	66.6965	454
-21.7094	66.5496	453
-20.7759	66.6965	454
-19.8817	66.9903	456
-19.0617	67.5779	460
-18.1458	67.8717	462
-17.3327	68.6063	467
-16.2533	68.3125	465
-15.2809	68.4594	466
-14.2429	68.3125	465
-13.1523	67.8717	462
-12.1273	67.7248	461
-11.0341	67.1372	457
-9.93632	66.4026	452
-8.91958	66.1088	450
-7.92915	65.9619	449
-6.98954	66.2557	451
-6.04128	66.5496	453
-5.07319	66.6965	454
-4.09177	66.6965	454
-3.11721	66.8434	455
-2.13832	66.9903	456
-1.1551	67.1372	457
-0.165734	66.5496	453
0.800952	65.5212	446
1.76508	65.5212	446
2.7292	65.5212	446
3.70161	65.6681	447
4.66789	65.6681	447
5.64678	65.815	448
6.61523	65.815	448
7.58368	65.815	448
8.57122	65.9619	449
9.62683	66.5496	453
10.6295	66.6965	454
11.6365	66.8434	455
12.6478	66.9903	456
13.514	66.4026	452
14.3949	65.9619	449
15.4339	66.2557	451
16.5544	66.8434	455
17.538	66.8434	455
18.4809	66.6965	454
19.3765	66.4026	452
20.2185	65.9619	449
21.1891	65.9619	449
22.2585	66.2557	451
23.4395	66.8434	455
24.4767	66.9903	456
25.6858	67.5779	460
26.5642	67.2841	458
26.8323	65.5212	446
27.7964	65.5212	446
28.7606	65.5212	446
29.7913	65.6681	447
30.5512	65.2274	444
31.8659	65.9619	449
33.129	66.5496	453
34.1836	66.6965	454
35.3199	66.9903	456
36.3852	67.1372	457
37.3731	67.1372	457
38.2771	66.9903	456
38.8323	66.2557	451
40.2486	66.9903	456
41.1439	66.8434	455
42.0349	66.6965	454
42.5426	65.9619	449
43.2224	65.5212	446
43.9884	65.2274	444
44.6445	64.7867	441
45.5978	64.7867	441
47.0789	65.5212	446
49.1203	66.9903	456
50.106	66.9903	456
51.0918	66.9903	456
52.0775	66.9903	456
53.296	67.2841	458
54.1675	67.1372	457
55.1554	67.1372	457
55.8976	66.8434	455
56.6312	66.5496	453
57.9919	66.9903	456
59.6244	67.7248	461
60.4894	67.5779	460
61.4838	67.5779	460
62.3424	67.431	459
62.5067	66.5496	453
62.9254	65.9619	449
63.4691	65.5212	446
64.7221	65.815	448
65.8372	65.9619	449
66.5102	65.6681	447
67.7784	65.9619	449
69.6677	66.8434	455
71.1171	67.2841	458
71.4775	66.6965	454
71.9801	66.2557	451
73.1168	66.4026	452
75.0774	67.2841	458
76.5657	67.7248	461
77.7305	67.8717	462
76.8547	66.2557	451
77.312	65.815	448
78.2804	65.815	448
80.664	66.9903	456
82.366	67.5779	460
84.2665	68.3125	465
86.0052	68.9001	469
87.2046	69.047	470
85.9681	67.2841	458
86.7683	67.1372	457
87.1802	66.6965	454
87.579	66.2557	451
88.9466	66.5496	453
89.7274	66.4026	452
90.7045	66.4026	452
91.6816	66.4026	452
91.0187	65.2274	444
90.5284	64.199	437
90.8451	63.7583	434
94.744	65.815	448
97.208	66.8434	455
98.6232	67.1372	457
100.483	67.7248	461
101.259	67.5779	460
101.142	66.8434	455
101.453	66.4026	452
101.297	65.6681	447
101.119	64.9336	442
101.613	64.6397	440
102.331	64.4928	439
102.809	64.199	437
104.703	64.7867	441
106.615	65.3743	445
108.061	65.6681	447
107.807	64.9336	442
107.779	64.3459	438
109.222	64.6397	440
113.178	66.4026	452
114.407	66.5496	453
115.896	66.8434	455
117.136	66.9903	456
117.604	66.6965	454
115.974	65.2274	444
116.143	64.7867	441
117.362	64.9336	442
118.853	65.2274	444
119.543	65.0805	443
120.501	65.0805	443
122.007	65.3743	445
123.797	65.815	448
125.323	66.1088	450
127.138	66.5496	453
128.965	66.9903	456
130.236	67.1372	457
130.937	66.9903	456
132.212	67.1372	457
133.2	67.1372	457
134.188	67.1372	457
136.063	67.5779	460
135.568	66.8434	455
135.351	66.2557	451
134.814	65.5212	446
134.561	64.9336	442
134.903	64.6397	440
135.237	64.3459	438
135.562	64.0521	436
136.817	64.199	437
138.392	64.4928	439
139.659	64.6397	440
139.971	64.3459	438
140.596	64.199	437
141.541	64.199	437
143.137	64.4928	439
144.086	64.4928	439
146.687	65.2274	444
148.645	65.6681	447
149.611	65.6681	447
149.23	65.0805	443
149.17	64.6397	440
150.121	64.6397	440
152.103	65.0805	443
154.097	65.5212	446
156.104	65.9619	449
157.075	65.9619	449
158.045	65.9619	449
159.016	65.9619	449
159.986	65.9619	449
159.165	65.2274	444
161.206	65.6681	447
161.084	65.2274	444
162.044	65.2274	444
162.637	65.0805	443
163.964	65.2274	444
164.923	65.2274	444
165.883	65.2274	444
166.843	65.2274	444
168.181	65.3743	445
169.523	65.5212	446
170.487	65.5212	446
171.451	65.5212	446
172.415	65.5212	446
172.991	65.3743	445
172.389	64.7867	441
174.128	65.0805	443
175.876	65.3743	445
177.236	65.5212	446
177.401	65.2274	444
177.155	64.7867	441
176.493	64.199	437
176.22	63.7583	434
176.342	63.4645	432
176.455	63.1707	430
176.972	63.0237	429
178.729	63.3176	431
182.578	64.3459	438
185.201	64.9336	442
186.999	65.2274	444
187.959	65.2274	444
189.769	65.5212	446
189.023	64.9336	442
190.838	65.2274	444
190.934	64.9336	442
189.285	64.0521	436
187.173	63.0237	429
189.416	63.4645	432
190.79	63.6114	433
193.94	64.3459	438
196.667	64.9336	442
197.175	64.7867	441
198.578	64.9336	442
199.533	64.9336	442
201.396	65.2274	444
204.179	65.815	448
206.521	66.2557	451
207.036	66.1088	450
205.235	65.2274	444
203.873	64.4928	439
203.422	64.0521	436
205.302	64.3459	438
207.662	64.7867	441
209.561	65.0805	443
211.469	65.3743	445
212.431	65.3743	445
211.475	64.7867	441
211.946	64.6397	440
211.446	64.199	437
213.363	64.4928	439
217.241	65.3743	445
217.712	65.2274	444
217.687	64.9336	442
220.127	65.3743	445
221.586	65.5212	446
222.051	65.3743	445
223.514	65.5212	446
223.975	65.3743	445
224.937	65.3743	445
225.899	65.3743	445
226.351	65.2274	444
226.287	64.9336	442
227.756	65.0805	443
228.714	65.0805	443
230.19	65.2274	444
230.108	64.9336	442
229.496	64.4928	439
230.97	64.6397	440
234.029	65.2274	444
237.106	65.815	448
236.48	65.3743	445
235.308	64.7867	441
235.19	64.4928	439
236.139	64.4928	439
238.708	64.9336	442
240.748	65.2274	444
242.252	65.3743	445
241.574	64.9336	442
241.432	64.6397	440
241.833	64.4928	439
243.888	64.7867	441
244.841	64.7867	441
246.352	64.9336	442
247.867	65.0805	443
250.509	65.5212	446
253.165	65.9619	449
254.702	66.1088	450
255.106	65.9619	449
252.655	65.0805	443
253.612	65.0805	443
252.846	64.6397	440
256.681	65.3743	445
258.801	65.6681	447
260.349	65.815	448
261.317	65.815	448
262.286	65.815	448
257.965	64.4928	439
256.555	63.9052	435
252.76	62.7299	427
252.495	62.4361	425
256.395	63.1707	430
259.718	63.7583	434
265.461	64.9336	442
269.43	65.6681	447
269.792	65.5212	446
268.935	65.0805	443
268.674	64.7867	441
267.793	64.3459	438
266.899	63.9052	435
267.839	63.9052	435
267.544	63.6114	433
267.86	63.4645	432
268.172	63.3176	431
270.352	63.6114	433
271.915	63.7583	434
-342.205	69.1685	464
-341.202	69.1685	464
-335.067	68.125	457
-334.079	68.125	457
-336.006	68.7213	461
-339.37	69.6157	467
-338.36	69.6157	467
-340.963	70.361	472
-344.264	71.2555	478
-346.103	71.8517	482
-346.492	72.1499	484
-344.019	71.8517	482
-342.977	71.8517	482
-340.516	71.5536	480
-340.186	71.7027	481
-333.505	70.5101	473
-330.374	70.0629	470
-327.256	69.6157	467
-326.246	69.6157	467
-319.665	68.4231	459
-315.201	67.6778	454
-313.528	67.5287	453
-313.929	67.8269	455
-317.072	68.7213	461
-316.075	68.7213	461
-318.496	69.4666	466
-319.533	69.9138	469
-319.877	70.212	471
-317.505	69.9138	469
-314.467	69.4666	466
-312.787	69.3176	465
-311.781	69.3176	465
-309.439	69.0194	463
-310.437	69.4666	466
-311.422	69.9138	469
-311.732	70.212	471
-312.693	70.6592	474
-312.325	70.8083	475
-310.643	70.6592	474
-308.312	70.361	472
-307.292	70.361	472
-308.218	70.8083	475
-309.132	71.2555	478
-311.321	72.0008	483
-310.919	72.1499	484
-307.312	71.5536	480
-301.17	70.361	472
-298.878	70.0629	470
-296.594	69.7648	468
-295.583	69.7648	468
-296.459	70.212	471
-297.323	70.6592	474
-295.048	70.361	472
-293.405	70.212	471
-291.766	70.0629	470
-290.131	69.9138	469
-290.35	70.212	471
-289.332	70.212	471
-287.09	69.9138	469
-287.296	70.212	471
-284.454	69.7648	468
-283.442	69.7648	468
-278.206	68.7213	461
-276.608	68.5722	460
-274.416	68.2741	458
-273.426	68.2741	458
-273.03	68.4231	459
-272.631	68.5722	460
-273.999	69.1685	464
-275.937	69.9138	469
-277.854	70.6592	474
-276.246	70.5101	473
