-196.923	86.0223	1245
-193.608	85.7459	1241
-191.386	85.9532	1244
-188.697	85.9532	1244
-184.961	85.4695	1237
-179.193	84.0186	1216
-174.096	82.844	1199
-171.933	83.0512	1202
-170.321	83.5349	1209
-168.817	84.0877	1217
-165.23	83.604	1210
-161.539	83.0512	1202
-157.486	82.2912	1191
-153.611	81.6003	1181
-150.547	81.3239	1177
-147.876	81.2548	1176
-145.581	81.393	1178
-143.399	81.6003	1181
-140.369	81.3239	1177
-137.239	80.9784	1172
-134.591	80.9093	1171
-131.721	80.702	1168
-131.298	82.0148	1187
-131.118	83.5349	1209
-129.886	84.4331	1222
-127.765	84.7786	1227
-124.093	84.0877	1217
-121.562	84.1568	1218
-119.71	84.7095	1226
-117.537	85.055	1231
-114.503	84.7786	1227
-112.762	85.4695	1237
-111.245	86.3678	1250
-108.89	86.6441	1254
-105.672	86.2296	1248
-100.993	84.5713	1224
-97.6244	83.9495	1215
-94.5288	83.5349	1209
-91.6112	83.2585	1205
-88.3415	82.6367	1196
-84.3938	81.3239	1177
-81.154	80.6329	1167
-78.2944	80.2875	1162
-75.6521	80.1493	1160
-72.8923	79.8729	1156
-69.7235	79.1129	1145
-67.1896	79.0438	1144
-65.3954	79.8729	1156
-64.2023	81.5312	1180
-62.0172	82.0148	1187
-59.2008	81.6694	1182
-56.3102	81.1857	1175
-53.4956	80.7711	1169
-50.8814	80.6329	1167
-48.483	80.8402	1170
-46.1502	81.1857	1175
-44.0555	82.0148	1187
-42.0488	83.1203	1203
-39.6122	83.4658	1208
-36.9396	83.3276	1206
-34.0479	82.6367	1196
-31.3836	82.4294	1193
-28.6598	82.0148	1187
-26.0938	82.0148	1187
-23.5675	82.153	1189
-20.7853	81.3239	1177
-18.0395	80.4257	1164
-15.4833	80.2184	1161
-12.9847	80.2875	1162
-10.5269	80.702	1168
-8.04993	81.1857	1175
-5.61308	82.7058	1197
-3.04067	83.1203	1203
-0.438665	82.844	1199
2.17119	83.5349	1209
4.78866	83.604	1210
7.40434	83.604	1210
10.0034	83.4658	1208
12.6983	84.0186	1216
15.1505	83.0512	1202
17.2469	80.702	1168
19.7379	80.5639	1166
22.3348	80.8402	1170
25.119	81.6694	1182
27.9083	82.3603	1192
30.6129	82.7058	1197
32.9231	82.0148	1187
35.1303	81.1857	1175
37.2215	80.2184	1161
38.9784	78.6983	1139
41.2223	78.2837	1133
44.0184	78.9056	1142
47.057	79.8729	1156
50.0703	80.702	1168
52.9104	81.1857	1175
55.4033	81.1166	1174
57.8424	80.9784	1172
60.8396	81.6003	1181
63.7683	82.0839	1188
67.509	83.5349	1209
69.4265	82.7058	1197
70.51	80.9784	1172
72.1087	79.942	1157
74.9323	80.2875	1162
77.9107	80.7711	1169
80.3001	80.6329	1167
82.2551	80.0802	1159
83.5173	78.9056	1142
85.3083	78.2837	1133
88.4546	78.9056	1142
91.8787	79.7347	1154
95.4365	80.6329	1167
98.7986	81.3239	1177
101.515	81.4621	1179
103.269	80.8402	1170
104.623	79.942	1157
105.55	78.7674	1140
106.404	77.5928	1123
108.638	77.4546	1121
111.556	77.8001	1126
116.42	79.4583	1150
121.077	80.9093	1171
125.086	81.8766	1185
127.325	81.6694	1182
128.891	81.0475	1173
129.186	79.6656	1153
131.564	79.5965	1152
134.985	80.1493	1160
138.678	80.8402	1170
140.966	80.702	1168
142.017	79.8729	1156
142.516	78.7674	1140
145.107	78.8365	1141
148.091	79.1129	1145
151.618	79.6656	1153
154.378	79.8038	1155
157.554	80.1493	1160
160.061	80.1493	1160
162.849	80.2875	1162
164.223	79.7347	1154
165.995	79.3893	1149
169.359	79.8038	1155
173.938	80.7711	1169
176.616	80.8402	1170
177.461	80.0802	1159
176.706	78.6292	1138
176.804	77.5928	1123
179.551	77.731	1125
182.954	78.1456	1131
186.874	78.7674	1140
190.667	79.3202	1148
194.999	80.0802	1159
198.186	80.3566	1163
200.183	80.1493	1160
196.924	77.8692	1127
196.53	76.7637	1111
195.172	75.3127	1090
195.716	74.6217	1080
197.684	74.4836	1078
201.127	74.8981	1084
204.784	75.3818	1091
207.523	75.52	1093
210.269	75.6582	1095
212.831	75.7273	1096
215.593	75.8654	1098
217.172	75.5891	1094
219.537	75.5891	1094
221.902	75.5891	1094
222.422	74.9672	1085
222.903	74.3454	1076
225.857	74.5527	1079
229.035	74.829	1083
232.658	75.2436	1089
235.444	75.3818	1091
238.238	75.52	1093
239.941	75.3127	1090
242.297	75.3127	1090
243.082	74.829	1083
246.103	75.0363	1086
247.536	74.7599	1082
248.258	74.2763	1075
249.649	73.9999	1071
249.847	73.3781	1062
250.244	72.8253	1054
252.522	72.8253	1054
257.701	73.6544	1066
260.981	73.9308	1070
261.08	73.309	1061
262.381	73.0326	1057
264.415	72.9635	1056
266.445	72.8944	1055
271.018	73.5162	1064
274.603	73.8617	1069
277.173	73.9308	1070
276.874	73.2399	1060
278.375	73.0326	1057
284.112	73.9308	1070
292.046	75.3818	1091
297.913	76.28	1104
299.755	76.1418	1102
300.492	75.7273	1096
298.717	74.6908	1081
302.167	74.9672	1085
303.952	74.829	1083
304.313	74.3454	1076
305.784	74.1381	1073
309.826	74.5527	1079
315.052	75.2436	1089
319.446	75.7273	1096
322.99	76.0036	1100
325.072	75.9345	1099
326.554	75.7273	1096
330.724	76.1418	1102
334.92	76.5564	1108
337.315	76.5564	1108
339.097	76.4182	1106
339.635	76.0036	1100
342.635	76.1418	1102
346.583	76.4873	1107
348.976	76.4873	1107
349.464	76.0727	1101
349.927	75.6582	1095
355.19	76.28	1104
360.167	76.8328	1112
367.136	77.8001	1126
369.242	77.731	1125
371.343	77.6619	1124
365.792	76.0036	1100
369.509	76.28	1104
375.938	77.1091	1116
382.418	77.9383	1128
386.904	78.3528	1134
386.952	77.8692	1127
384.205	76.8328	1112
385.914	76.6946	1110
389.013	76.8328	1112
393.177	77.1782	1117
398.071	77.6619	1124
401.569	77.8692	1127
404.006	77.8692	1127
407.163	78.0074	1129
404.887	77.1091	1116
402.555	76.2109	1103
403.104	75.8654	1098
403.631	75.52	1093
407.48	75.7964	1097
414.708	76.6946	1110
417.859	76.8328	1112
419.507	76.6946	1110
421.907	76.6946	1110
412.838	74.6217	1080
414.02	74.4145	1077
411.322	73.5162	1064
411.679	73.1708	1059
416.313	73.5853	1065
421.367	74.069	1072
426.056	74.4836	1078
429.181	74.6217	1080
433.513	74.9672	1085
435.859	74.9672	1085
440.224	75.3127	1090
443.798	75.52	1093
443.303	75.0363	1086
442.368	74.4836	1078
443.873	74.3454	1076
444.126	73.9999	1071
446.024	73.9308	1070
447.08	73.7235	1067
448.123	73.5162	1064
452.54	73.8617	1069
455.702	73.9999	1071
457.162	73.8617	1069
455.175	73.1708	1059
455.304	72.8253	1054
455.846	72.5489	1050
465.533	73.7235	1067
473.101	74.5527	1079
470.586	73.7926	1068
467.582	72.9635	1056
466.305	72.4107	1048
472.594	73.0326	1057
480.271	73.8617	1069
485.29	74.2763	1075
488.975	74.4836	1078
491.305	74.4836	1078
498.214	75.1745	1088
503.327	75.5891	1094
507.541	75.8654	1098
508.057	75.5891	1094
505.756	74.8981	1084
513.724	75.7273	1096
513.739	75.3818	1091
510.421	74.5527	1079
503.249	73.1708	1059
499.332	72.2726	1046
500.634	72.1344	1044
506.263	72.618	1051
509.987	72.8253	1054
511.293	72.6871	1052
516.008	73.0326	1057
522.216	73.5853	1065
527.966	74.069	1072
536.219	74.8981	1084
540.053	75.1054	1087
538.411	74.5527	1079
538.237	74.2072	1074
539.049	73.9999	1071
538.837	73.6544	1066
537.08	73.1017	1058
534.269	72.4107	1048
536.023	72.3416	1047
541.371	72.7562	1053
541.582	72.4798	1049
547.997	73.0326	1057
552.365	73.309	1061
554.135	73.2399	1060
551.177	72.5489	1050
545.014	71.4434	1034
546.19	71.3052	1032
550.547	71.5816	1036
555.988	71.9962	1042
566.277	73.0326	1057
575.016	73.8617	1069
583.268	74.6217	1080
579.096	73.7926	1068
566.706	71.9271	1041
560.212	70.8216	1025
558.586	70.3379	1018
566.296	71.0289	1028
573.495	71.6507	1037
580.179	72.2035	1045
578.536	71.7198	1038
571.828	70.6143	1022
571.79	70.3379	1018
574.555	70.407	1019
581.852	71.0289	1028
593.733	72.2035	1045
599.984	72.6871	1052
608.555	73.4472	1063
616.025	74.069	1072
619.496	74.2072	1074
618.923	73.8617	1069
613.098	72.8944	1055
612.462	72.5489	1050
611.219	72.1344	1044
610.538	71.7889	1039
612.784	71.7889	1039
609.702	71.167	1030
608.958	70.8216	1025
613.559	71.0979	1029
616.382	71.167	1030
612.603	70.4761	1020
619.027	70.9598	1027
629.111	71.858	1040
636.216	72.4107	1048
637.263	72.2726	1046
633.41	71.5816	1036
625.219	70.407	1019
621.264	69.7161	1009
616.031	68.8869	997
616.326	68.6796	994
619.719	68.8178	996
623.745	69.0251	999
-764.717	80.2339	1126
-751.451	79.0938	1110
-756.474	79.8777	1121
-755.396	80.0202	1123
-761.685	80.9465	1136
-757.893	80.804	1134
-756.774	80.9465	1136
-754.318	80.9465	1136
-749.215	80.6615	1132
-744.129	80.3765	1128
-739.718	80.1627	1125
-707.139	76.8849	1079
-695.009	75.8161	1064
-705.079	77.1699	1083
-713.12	78.31	1099
-719.151	79.2364	1112
-716.747	79.2364	1112
-712.416	79.0226	1109
-713.86	79.4501	1115
-709.536	79.2364	1112
-696.321	78.025	1095
-693.954	78.025	1095
-687.166	77.5262	1088
-686.703	77.74	1091
-680.581	77.3125	1085
-665.733	75.8873	1065
-668.414	76.4574	1073
-672.923	77.2412	1084
-670.58	77.2412	1084
-665.155	76.8849	1079
-657.293	76.2436	1070
-656.205	76.3861	1072
-660.597	77.1699	1083
-664.942	77.9538	1094
-667.422	78.5238	1102
-669.868	79.0938	1110
-666.265	78.9513	1108
-656.68	78.0963	1096
-653.117	77.9538	1094
-659.08	78.9513	1108
-659.648	79.3076	1113
-648.975	78.31	1099
-638.362	77.3125	1085
-634.258	77.0987	1082
-631.919	77.0987	1082
-631.908	77.3837	1086
-616.227	75.7448	1063
-600.068	74.0347	1039
-596.671	73.8922	1037
-604.174	75.1035	1054
-605.322	75.5311	1060
-605.875	75.8873	1065
-608.107	76.4574	1073
-619.337	78.1675	1097
-618.091	78.31	1099
-606.751	77.1699	1083
-601.619	76.8137	1078
-598.733	76.7424	1077
-604.157	77.74	1091
-605.66	78.2388	1098
-606.583	78.6663	1104
-602.008	78.3813	1100
-591.453	77.3125	1085
-586.393	76.9562	1080
-579.191	76.3149	1071
-573.644	75.8873	1065
-572.951	76.1011	1068
-575.986	76.8137	1078
-573.123	76.7424	1077
-572.915	77.0274	1081
-569.522	76.8849	1079
-567.716	76.9562	1080
-561.193	76.3861	1072
-563.046	76.9562	1080
-574.729	78.8801	1107
-585.262	80.6615	1132
-583.33	80.7327	1133
-577.292	80.2339	1126
-567.71	79.2364	1112
-553.105	77.5262	1088
-541.642	76.2436	1070
-540.337	76.3861	1072
-552.574	78.4526	1101
-562.687	80.2339	1126
-566.224	81.089	1138
-550.883	79.2364	1112
-531.709	76.8137	1078
-522.013	75.7448	1063
-529.982	77.2412	1084
-528.126	77.3125	1085
-533.049	78.3813	1100
-523.435	77.3125	1085
-519.648	77.0987	1082
-522.091	77.8112	1092
-520.206	77.8825	1093
-521.16	78.3813	1100
-521.14	78.7376	1105
-520.159	78.9513	1108
-519.633	79.2364	1112
-519.555	79.5926	1117
-513.437	79.0226	1109
-508.275	78.5951	1103
-504.973	78.4526	1101
-495.746	77.3837	1086
-490.218	76.8849	1079
-487.433	76.8137	1078
-493.653	78.1675	1097
-498.895	79.3789	1114
-496.932	79.4501	1115
-490.974	78.8801	1107
-480.636	77.5975	1089
-477.843	77.5262	1088
-473.743	77.2412	1084
-467.051	76.5286	1074
-459.97	75.7448	1063
-464.991	76.9562	1080
-467.797	77.8112	1092
-472.256	78.9513	1108
-468.589	78.7376	1105
-449.324	75.8873	1065
-447.022	75.8873	1065
-449.313	76.6712	1076
-448.233	76.8849	1079
-447.553	77.1699	1083
-449.323	77.8825	1093
-445.325	77.5975	1089
-442.157	77.455	1087
-434.547	76.5286	1074
-427.799	75.7448	1063
-427.102	76.0299	1067
-432.758	77.455	1087
-431.596	77.6687	1090
-430.421	77.8825	1093
-431.975	78.5951	1103
-432.706	79.1651	1111
-417.911	76.8849	1079
-435.606	80.5902	1131
-436.991	81.3028	1141
-429.954	80.4477	1129
-428.271	80.5902	1131
-428.085	81.0178	1137
-427.874	81.4453	1143
-430.241	82.3716	1156
-429.222	82.6566	1160
-430.393	83.3692	1170
-432.618	84.2955	1183
-435.514	85.3644	1198
-437.622	86.2907	1211
-432.849	85.8631	1205
-426.673	85.1506	1195
-418.057	83.9392	1178
-402.46	81.3028	1141
-395.085	80.3052	1127
-391.952	80.1627	1125
-390.213	80.3052	1127
-391.217	81.0178	1137
-394.23	82.1578	1153
-393.776	82.5854	1159
-387.22	81.7303	1147
-377.696	80.2339	1126
-371.596	79.4501	1115
-365.543	78.6663	1104
-369.078	79.9489	1122
-393.449	85.7919	1204
-389.223	85.4356	1199
-372.765	82.3716	1156
-361.298	80.3765	1128
-362.995	81.3028	1141
-361.161	81.4453	1143
-360.887	81.9441	1150
-358.401	81.9441	1150
-351.272	80.8752	1135
-350.663	81.3028	1141
-350.943	81.9441	1150
-350.275	82.3716	1156
-349.882	82.8704	1163
-348.861	83.2267	1168
-355.232	85.3644	1198
-357.058	86.4332	1213
-350.345	85.4356	1199
-343.402	84.3668	1184
-329.904	81.6591	1146
-322.855	80.519	1130
-321.546	80.804	1134
-321.627	81.4453	1143
-321.39	82.0153	1151
-318.902	82.0153	1151
-315.864	81.8728	1149
-306.562	80.0914	1124
-304.132	80.0914	1124
-303.85	80.6615	1132
-301.403	80.6615	1132
-296.843	80.0914	1124
-287.865	78.31	1099
-286.528	78.5951	1103
-288.266	79.7352	1119
-291.211	81.2315	1140
-292.039	82.1578	1153
-292.811	83.0842	1166
-295.768	84.6518	1188
-291.719	84.2243	1182
-288.43	84.0105	1179
-279.577	82.1578	1153
-270.596	80.2339	1126
-262.684	78.5951	1103
-262.66	79.3076	1113
-260.488	79.3789	1114
-256.226	78.8088	1106
-253.147	78.5951	1103
-255.082	79.9489	1122
-257.386	81.4453	1143
-255.138	81.5165	1144
-251.119	81.0178	1137
-244.287	79.5926	1117
-241.656	79.5214	1116
-241.816	80.3765	1128
-237.68	79.8064	1120
-234.838	79.6639	1118
-231.382	79.3076	1113
-230.21	79.7352	1119
-230.031	80.519	1130
-234.839	83.0842	1166
-234.111	83.7255	1175
-229.995	83.1554	1167
-226.692	82.8704	1163
-220.516	81.5165	1144
-214.993	80.3765	1128
-210.105	79.4501	1115
-206.205	78.8801	1107
-203.812	78.8801	1107
-201.237	78.8088	1106
-198.127	78.5238	1102
-194.323	77.9538	1094
-202.662	82.3004	1155
-198.259	81.5165	1144
-192.021	79.9489	1122
-189.426	79.8777	1121
-187.837	80.2339	1126
-186.226	80.5902	1131
-186.219	81.6591	1146
-185.826	82.5854	1159
-185.851	83.7255	1175
-184.715	84.3668	1184
-183.386	84.9368	1192
-180.658	84.8656	1191
-176.887	84.2955	1183
-173.74	84.0105	1179
-170.32	83.583	1173
-167.642	83.5117	1172
-165.672	83.7967	1176
-162.713	83.583	1173
-159.768	83.3692	1170
-156.029	82.7279	1161
-151.801	81.8016	1148
-147.628	80.8752	1135
-143.256	79.8064	1120
-141.338	80.0914	1124
-140.02	80.7327	1133
-138.057	81.0178	1137
-135.837	81.1603	1139
-132.79	80.804	1134
-130.108	80.6615	1132
-128.338	81.089	1138
-126.984	81.8016	1148
-127.105	83.5117	1172
-126.272	84.6518	1188
-122.975	84.153	1181
-118.791	83.0129	1165
-115.873	82.7279	1161
-113.852	83.0842	1166
-112	83.583	1173
-110.21	84.153	1181
-108.387	84.7231	1189
-106.884	85.5781	1201
-104.201	85.5069	1200
-101.438	85.3644	1198
-96.2904	83.1554	1167
-92.8838	82.3716	1156
-89.7594	81.8016	1148
-87.5058	82.0153	1151
-84.1313	81.1603	1139
-80.5219	80.0202	1123
-77.9552	79.8777	1121
-75.2624	79.5926	1117
-73.1086	79.8777	1121
-70.1178	79.2364	1112
-66.9224	78.31	1099
-63.0783	76.5286	1074
-60.8698	76.6712	1076
-60.0128	78.5951	1103
-58.2554	79.4501	1115
-56.1456	79.8777	1121
-54.1057	80.4477	1129
-51.6194	80.3765	1128
-49.2246	80.4477	1129
-46.5354	80.0202	1123
-44.5005	80.7327	1133
-42.6451	81.8728	1149
-40.7905	83.1554	1167
-38.5301	83.7255	1175
-36.0514	83.868	1177
-33.1654	83.0129	1165
-30.1209	81.5878	1145
-27.4767	81.089	1138
-25.0386	81.1603	1139
-22.5368	81.0178	1137
-19.7611	79.7352	1119
-17.2956	79.5214	1116
-14.8831	79.5214	1116
-12.4818	79.5926	1117
-10.0852	79.7352	1119
-7.72108	80.3052	1127
-5.32703	80.9465	1136
-2.90924	82.0153	1151
-0.423664	82.5141	1158
2.08678	82.7991	1162
4.55912	82.0866	1152
7.0433	82.0153	1151
9.68877	83.3692	1170
12.2702	83.7255	1175
14.3186	80.9465	1136
16.4643	79.4501	1115
18.8069	79.1651	1111
21.4567	80.0914	1124
24.1202	80.8752	1135
26.8313	81.6591	1146
29.769	82.9417	1164
32.0633	82.3716	1156
33.9942	81.0178	1137
36.1956	80.4477	1129
38.0886	79.3076	1113
40.0216	78.3813	1100
42.6308	78.8088	1106
45.4694	79.5926	1117
48.6128	80.804	1134
51.1993	81.0178	1137
53.61	80.9465	1136
56.0163	80.8752	1135
58.3668	80.7327	1133
60.8161	80.7327	1133
63.8795	81.5165	1144
65.5985	80.5902	1131
67.2011	79.5926	1117
69.4288	79.3789	1114
72.6108	80.2339	1126
75.4447	80.6615	1132
78.167	80.9465	1136
79.913	80.2339	1126
81.7621	79.6639	1118
83.2753	78.8088	1106
85.5887	78.7376	1105
88.7736	79.4501	1115
92.3288	80.4477	1129
94.5176	80.2339	1126
96.6073	79.9489	1122
98.2383	79.3076	1113
100.916	79.5214	1116
102.402	78.8088	1106
103.94	78.1675	1097
105.633	77.6687	1090
108.584	78.0963	1096
112.573	79.2364	1112
117.148	80.7327	1133
120.759	81.5165	1144
123.878	81.9441	1150
125.045	81.089	1138
126.609	80.519	1130
128.709	80.3052	1127
131.378	80.4477	1129
133.463	80.2339	1126
135.656	80.0914	1124
137.594	79.8064	1120
139.515	79.5214	1116
141.8	79.4501	1115
144.081	79.3789	1114
146.621	79.4501	1115
148.898	79.3789	1114
151.849	79.6639	1118
154.68	79.8777	1121
156.683	79.6639	1118
158.388	79.3076	1113
162.094	79.9489	1122
166.279	80.804	1134
169.921	81.374	1142
172.541	81.4453	1143
173.48	80.7327	1133
172.203	79.0226	1109
172.081	77.8825	1093
173.965	77.6687	1090
177.939	78.3813	1100
182.12	79.1651	1111
186.017	79.8064	1120
189.784	80.3765	1128
182.679	76.3861	1072
186.55	77.0274	1081
187.838	76.5999	1075
188.393	75.8873	1065
188.009	74.8185	1050
189.192	74.391	1044
191.082	74.2485	1042
194.633	74.7473	1049
198.027	75.1748	1055
201.827	75.7448	1063
205.853	76.3861	1072
208.947	76.6712	1076
210.291	76.3149	1071
209.232	75.1035	1054
210.306	74.676	1048
212.571	74.676	1048
214.427	74.5335	1046
215.652	74.1772	1041
218.531	74.391	1044
222.902	75.1035	1054
226.89	75.6736	1062
230.912	76.2436	1070
234.097	76.5286	1074
236.639	76.5999	1075
239.185	76.6712	1076
240.613	76.3861	1072
241.344	75.8873	1065
241.359	75.1748	1055
242.254	74.7473	1049
243.822	74.5335	1046
245.377	74.3197	1043
245.02	73.5359	1032
246.293	73.2509	1028
248.032	73.1084	1026
251.225	73.3934	1030
253.698	73.4647	1031
255.678	73.3934	1030
257.905	73.3934	1030
260.384	73.4647	1031
264.396	73.9634	1038
267.924	74.3197	1043
271.474	74.676	1048
272.956	74.4622	1045
275.478	74.5335	1046
281.191	75.4598	1059
288.031	76.6712	1076
292.516	77.2412	1084
291.323	76.3149	1071
290.348	75.4598	1059
289.045	74.5335	1046
290.471	74.3197	1043
295.813	75.1035	1054
296.394	74.676	1048
295.525	73.8922	1037
299.202	74.2485	1042
304.348	74.961	1052
308.079	75.3173	1057
313.007	75.9586	1066
317.677	76.5286	1074
321.787	76.9562	1080
326.222	77.455	1087
330.688	77.9538	1094
331.835	77.6687	1090
331.432	77.0274	1081
331.608	76.5286	1074
333.307	76.3861	1072
336.877	76.6712	1076
341.41	77.1699	1083
341.847	76.7424	1077
343.855	76.6712	1076
348.112	77.0987	1082
355.633	78.2388	1098
359.311	78.5238	1102
361.693	78.5238	1102
360.771	77.8112	1092
358.144	76.7424	1077
359.133	76.4574	1073
363.137	76.8137	1078
371.57	78.0963	1096
377.351	78.8088	1106
376.995	78.2388	1098
376.259	77.5975	1089
378.961	77.6687	1090
383.416	78.0963	1096
388.249	78.5951	1103
393.821	79.2364	1112
396.225	79.2364	1112
397.195	78.9513	1108
398.508	78.7376	1105
399.445	78.4526	1101
396.716	77.455	1087
398.698	77.3837	1086
399.2	77.0274	1081
400.422	76.8137	1078
398.643	76.0299	1067
395.313	74.961	1052
395.319	74.5335	1046
397.58	74.5335	1046
404.046	75.3173	1057
404.025	74.8898	1051
404.364	74.5335	1046
405.07	74.2485	1042
410.059	74.7473	1049
414.685	75.1748	1055
415.78	74.961	1052
417.259	74.8185	1050
423.125	75.4598	1059
426.619	75.6736	1062
431.742	76.1724	1069
431.617	75.7448	1063
429.425	74.961	1052
427.595	74.2485	1042
429.023	74.1059	1040
432.515	74.3197	1043
436.437	74.6047	1047
438.281	74.5335	1046
439.7	74.391	1044
443.227	74.6047	1047
448.043	75.0323	1053
447.753	74.6047	1047
447.438	74.1772	1041
445.8	73.5359	1032
451.939	74.1772	1041
458.116	74.8185	1050
463.455	75.3173	1057
460.011	74.391	1044
456.512	73.4647	1031
460.076	73.6784	1034
462.311	73.6784	1034
470.836	74.676	1048
476.713	75.246	1056
476.728	74.8898	1051
482.646	75.4598	1059
484.477	75.3886	1058
486.304	75.3173	1057
491.362	75.7448	1063
490.409	75.246	1056
493.625	75.3886	1058
496.381	75.4598	1059
499.141	75.5311	1060
497.648	74.961	1052
491.844	73.7497	1035
489.307	73.0371	1025
492.482	73.1796	1027
495.184	73.2509	1028
499.826	73.6072	1033
504.489	73.9634	1038
509.174	74.3197	1043
514.861	74.8185	1050
524.025	75.8161	1064
527.81	76.0299	1067
529.122	75.8873	1065
528.431	75.4598	1059
529.216	75.246	1056
533.513	75.5311	1060
536.815	75.6736	1062
529.466	74.3197	1043
526.622	73.6072	1033
526.295	73.2509	1028
528.004	73.1796	1027
532.289	73.4647	1031
537.628	73.8922	1037
542.473	74.2485	1042
542.112	73.8922	1037
538.054	73.0371	1025
537.634	72.6808	1020
536.664	72.2533	1014
540.45	72.4671	1017
541.581	72.3246	1015
549.669	73.1084	1026
557.266	73.8209	1036
557.345	73.5359	1032
556.865	73.1796	1027
550.375	72.0395	1011
541.083	70.5432	990
542.125	70.4007	988
550.871	71.2557	1000
562.988	72.5383	1018
566.299	72.6808	1020
562.373	71.897	1009
559.518	71.2557	1000
558.872	70.8994	995
564.406	71.327	1001
568.267	71.5407	1004
575.551	72.182	1013
581.733	72.6808	1020
591.953	73.6784	1034
602.234	74.676	1048
606.806	74.961	1052
598.659	73.6784	1034
598.57	73.3934	1030
599.63	73.2509	1028
602.437	73.3221	1029
597.023	72.3958	1016
599.219	72.3958	1016
588.984	70.8994	995
588.165	70.5432	990
586.131	70.0444	983
592.445	70.5432	990
599.39	71.1132	998
606.972	71.7545	1007
616.408	72.6096	1019
621.039	72.8946	1023
620.813	72.6096	1019
617.513	71.9683	1010
619.083	71.897	1009
616.954	71.3982	1002
611.706	70.5432	990
610.126	70.1156	984
609.142	69.7594	979
611.258	69.7594	979
-771.606	80.0982	1091
-767.837	79.9514	1089
-761.969	79.5843	1084
-768.735	80.5387	1097
-781.733	82.1539	1119
-800.207	84.3564	1149
-797.724	84.3564	1149
-801.469	85.0172	1158
-794.136	84.5032	1151
-782.706	83.5488	1138
-761.049	81.4931	1110
-735.411	78.9969	1076
-727.635	78.4096	1068
-725.326	78.4096	1068
-732.495	79.4374	1082
-729.481	79.364	1081
-731.181	79.8045	1087
-727.49	79.6577	1085
-718.461	78.9235	1075
-713.472	78.6299	1071
-711.157	78.6299	1071
-714.137	79.2172	1079
-695.972	77.4552	1055
-685.143	76.5008	1042
-674.371	75.5463	1029
-668.881	75.1792	1024
-678.386	76.5008	1042
-689.111	77.9691	1062
-689.402	78.2628	1066
-687.098	78.2628	1066
-679.012	77.602	1057
-676.087	77.5286	1056
-680.823	78.3362	1067
-681.06	78.6299	1071
-675.576	78.2628	1066
-669.482	77.8223	1060
-655.861	76.5008	1042
-639.181	74.8122	1019
-637.604	74.8856	1020
-646.611	76.2071	1038
-657.404	77.7488	1059
-655.115	77.7488	1059
-654.058	77.8957	1061
-645.622	77.1615	1051
-634.78	76.1337	1037
-625.829	75.3261	1026
-616.925	74.5185	1015
-615.336	74.5919	1016
-620.985	75.5463	1029
-627.18	76.5742	1043
-630.916	77.3083	1053
-634.61	78.0425	1063
-634.097	78.2628	1066
-638.904	79.1438	1078
-633.031	78.7033	1072
-619.535	77.3083	1053
-610.811	76.5008	1042
-608.558	76.5008	1042
-601.651	75.9134	1034
-583.184	73.8577	1006
-576.389	73.2704	998
-576.533	73.5641	1002
-583.538	74.7387	1018
-583.622	75.0324	1022
-584.257	75.3995	1027
-584.871	75.7666	1032
-601.835	78.2628	1066
-604.593	78.9235	1075
-600.028	78.6299	1071
-592.69	77.9691	1062
-588.17	77.6754	1058
-581.453	77.0881	1050
-579.735	77.1615	1051
-582.408	77.8223	1060
-582.853	78.1894	1065
-574.009	77.3083	1053
-569.018	76.9413	1048
-562.426	76.3539	1040
-560.717	76.4273	1041
-557.93	76.3539	1040
-560.491	77.0147	1049
-559.287	77.1615	1051
-559.135	77.4552	1055
-555.271	77.2349	1052
-547.74	76.5008	1042
-542.347	76.0602	1036
-547.927	77.1615	1051
-558.116	78.9235	1075
-565.098	80.245	1093
-563.765	80.3919	1095
-558.835	80.0248	1090
-547.799	78.7767	1073
-533.787	77.0881	1050
-524.431	76.0602	1036
-519.671	75.6932	1031
-519.45	75.9868	1035
-529.705	77.8223	1060
-531.394	78.4096	1068
-526.113	77.9691	1062
-517.405	77.0147	1049
-502.861	75.1792	1024
-496.247	74.5185	1015
-511.576	77.1615	1051
-512.696	77.6754	1058
-500.761	76.2071	1038
-499.477	76.3539	1040
-500.576	76.8678	1047
-501.644	77.3818	1054
-504.103	78.1159	1064
-506.52	78.8501	1074
-502.79	78.6299	1071
-508.418	79.8779	1088
-505.601	79.8045	1087
-500.011	79.2906	1080
-498.598	79.4374	1082
-493.048	78.9235	1075
-485.703	78.1159	1064
-471.59	76.2071	1038
-463.468	75.2527	1025
-463.053	75.5463	1029
-478.294	78.4096	1068
-481.779	79.364	1081
-475.451	78.7033	1072
-465.63	77.4552	1055
-465.985	77.8957	1061
-463.691	77.8957	1061
-459.223	77.5286	1056
-453.479	76.9413	1048
-448.63	76.5008	1042
-443.379	75.9868	1035
-436.879	75.2527	1025
-428.727	74.2248	1011
-426.963	74.2982	1012
-428.973	75.0324	1022
-431.774	75.9134	1034
-434.109	76.721	1045
-433.916	77.0881	1050
-432.057	77.1615	1051
-425.287	76.3539	1040
-417.751	75.3995	1027
-409.057	74.2248	1011
-408.482	74.5185	1015
-411.091	75.3995	1027
-418.824	77.2349	1052
-418.925	77.6754	1058
-411.125	76.6476	1044
-407.693	76.4273	1041
-404.664	76.2805	1039
-402.418	76.2805	1039
-393.624	75.0324	1022
-392.181	75.1792	1024
-388.063	74.8122	1019
-385.103	74.6653	1017
-385.164	75.1058	1023
-414.397	81.2729	1107
-412.004	81.2729	1107
-411.461	81.64	1112
-413.84	82.5944	1125
-416.527	83.6222	1139
-416.246	84.0627	1145
-408.351	82.9615	1130
-408.782	83.5488	1138
-403.465	82.9615	1130
-399.248	82.5944	1125
-387.292	80.6121	1098
-380.362	79.6577	1085
-374.881	78.9969	1076
-373.247	79.1438	1078
-371.949	79.364	1081
-365.851	78.5564	1070
-365.237	78.9235	1075
-371.69	80.8324	1101
-366.627	80.245	1093
-361.931	79.7311	1086
-358.59	79.5109	1083
-351.644	78.483	1069
-345.738	77.6754	1058
-350.918	79.364	1081
-347.936	79.2172	1079
-340.158	77.9691	1062
-344.862	79.5843	1084
-343.782	79.8779	1088
-340.803	79.7311	1086
-338.143	79.6577	1085
-335.798	79.6577	1085
-339.599	81.126	1105
-339.652	81.7134	1113
-337.852	81.8602	1115
-335.742	81.9336	1116
-328.551	80.759	1100
-326.469	80.8324	1101
-327.033	81.5665	1111
-325.8	81.8602	1115
-327.45	82.8881	1129
-323.57	82.521	1124
-305.141	78.4096	1068
-302.265	78.2628	1066
-304.181	79.364	1081
-304.916	80.1716	1092
-304.218	80.6121	1098
-294.972	78.7767	1073
-295.652	79.5843	1084
-293.309	79.5843	1084
-289.624	79.2172	1079
-284.096	78.3362	1067
-278.884	77.5286	1056
-275.03	77.0881	1050
-274.319	77.5286	1056
-274.87	78.3362	1067
-276.395	79.4374	1082
-276.589	80.1716	1092
-274.982	80.3919	1095
-285.063	84.0627	1145
-283.328	84.283	1148
-275.954	82.8146	1128
-260.421	78.8501	1074
-256.417	78.3362	1067
-253.635	78.1894	1065
-246.612	76.721	1045
-244.587	76.7944	1046
-241.863	76.6476	1044
-242.36	77.5286	1056
-243.715	78.7033	1072
-243.424	79.364	1081
-243.764	80.245	1093
-238.088	79.1438	1078
-235.32	78.9969	1076
-230.179	78.0425	1063
-227.453	77.8957	1061
-225.159	77.8957	1061
-220.555	77.0881	1050
-217.869	76.9413	1048
-216.632	77.3083	1053
-214.356	77.3083	1053
-208.857	76.1337	1037
-212.792	78.4096	1068
-210.483	78.4096	1068
-202.717	76.3539	1040
-200.469	76.3539	1040
-197.268	75.9868	1035
-200.872	78.2628	1066
-199.499	78.6299	1071
-197.736	78.8501	1074
-194.868	78.6299	1071
-191.115	78.0425	1063
-187.396	77.4552	1055
-183.536	76.7944	1046
-179.542	76.0602	1036
-186.715	80.0982	1091
-181.146	78.7033	1072
-179.663	79.0704	1077
-178.487	79.5843	1084
-178.419	80.6121	1098
-178.13	81.5665	1111
-177.152	82.2273	1120
-175.198	82.4475	1123
-172.925	82.521	1124
-169.585	82.0805	1118
-165.972	81.4931	1110
-161.362	80.3919	1095
-157.543	79.6577	1085
-156.914	80.5387	1097
-158.628	82.6678	1126
-155.778	82.4475	1123
-151.711	81.5665	1111
-148.235	80.9792	1103
-144.263	80.0982	1091
-140.604	79.364	1081
-134.942	77.4552	1055
-133.039	77.6754	1058
-133.841	79.5109	1083
-132.714	80.245	1093
-132.14	81.3463	1108
-129.394	81.126	1105
-126.66	80.9058	1102
-123.038	80.0982	1091
-121.011	80.3185	1094
-119.297	80.759	1100
-116.919	80.759	1100
-115.478	81.4197	1109
-113.285	81.5665	1111
-109.985	80.9058	1102
-107.017	80.4653	1096
-104.838	80.6121	1098
-104.705	82.3741	1122
-103.647	83.4754	1137
-102.079	84.2096	1147
-99.686	84.283	1148
-95.4262	82.7412	1127
-91.2572	81.1995	1106
-87.4201	79.8779	1088
-84.0517	78.9235	1075
-81.9559	79.1438	1078
-80.1426	79.6577	1085
-77.7255	79.5843	1084
-74.9649	79.1438	1078
-72.702	79.2172	1079
-70.3695	79.2172	1079
-66.8389	77.8223	1060
-63.695	76.7944	1046
-61.3164	76.6476	1044
-59.003	76.5742	1043
-56.6395	76.4273	1041
-54.4414	76.5008	1042
-52.1388	76.4273	1041
-50.4635	77.3083	1053
-48.7364	78.1894	1065
-46.3906	78.1159	1064
-44.0491	78.0425	1063
-41.9083	78.3362	1067
-40.2327	79.5843	1084
-38.204	80.245	1093
-36.2347	81.126	1105
-34.0298	81.5665	1111
-31.4858	81.1995	1106
-28.8845	80.6121	1098
-26.2936	79.9514	1089
-23.7197	79.2172	1079
-21.2088	78.5564	1070
-18.8075	78.1894	1065
-16.4432	77.8957	1061
-14.2964	78.7033	1072
-11.9566	78.5564	1070
-9.68867	78.9235	1075
-7.36483	78.9235	1075
-5.0785	79.5109	1083
-2.76011	80.1716	1092
-0.397323	79.7311	1086
1.9054	77.8957	1061
4.23856	78.6299	1071
6.65166	79.8045	1087
9.00145	79.8045	1087
11.1319	78.2628	1066
13.2851	77.3818	1054
15.8145	78.6299	1071
18.2313	79.0704	1077
20.5595	79.0704	1077
22.9301	79.2172	1079
25.1456	78.8501	1074
27.4161	78.7033	1072
29.567	78.2628	1066
31.991	78.5564	1070
34.9773	80.0982	1091
36.9593	79.2906	1080
39.0393	78.7767	1073
41.3588	78.7767	1073
43.6376	78.7033	1072
46.0836	78.9235	1075
48.4074	78.9235	1075
50.7785	78.9969	1076
53.1538	79.0704	1077
55.6365	79.2906	1080
58.1859	79.5843	1084
60.25	79.2172	1079
62.6405	79.2906	1080
64.0727	78.1894	1065
66.188	77.9691	1062
68.0968	77.5286	1056
70.8461	78.0425	1063
73.6256	78.5564	1070
76.6484	79.2906	1080
78.8368	79.1438	1078
81.5436	79.5109	1083
83.5749	79.2172	1079
86.2259	79.5109	1083
88.2399	79.2172	1079
89.8169	78.5564	1070
90.7523	77.3818	1054
92.3246	76.7944	1046
95.7613	77.7488	1059
97.5876	77.3818	1054
98.7291	76.5008	1042
101.951	77.2349	1052
104.522	77.4552	1055
107.208	77.7488	1059
111.565	79.2172	1079
115.481	80.3185	1094
119.03	81.126	1105
121.969	81.4931	1110
123.696	81.0526	1104
125.055	80.3919	1095
126.491	79.8045	1087
128.248	79.4374	1082
129.983	79.0704	1077
132.68	79.2906	1080
136.265	80.0248	1090
138.748	80.0982	1091
140.719	79.8779	1088
141.887	79.2172	1079
143.819	78.9969	1076
144.651	78.1894	1065
145.711	77.5286	1056
147.293	77.1615	1051
150.988	77.8957	1061
155.304	78.9235	1075
158.948	79.5843	1084
161.291	79.5843	1084
162.125	78.8501	1074
164.6	78.9235	1075
165.836	78.4096	1068
165.941	77.3818	1054
169.018	77.7488	1059
172.924	78.483	1069
177.202	79.364	1081
178.875	79.0704	1077
169.93	74.1514	1010
174.159	75.0324	1022
176.195	74.959	1021
177.179	74.4451	1014
177.249	73.5641	1002
179.236	73.4906	1001
181.943	73.7109	1004
186.681	74.7387	1018
189.067	74.8122	1019
189.768	74.2248	1011
191.384	74.0046	1008
193.371	73.9312	1007
200.208	75.6932	1031
200.67	75.0324	1022
200.497	74.1514	1010
202.48	74.078	1009
203.85	73.7843	1005
207.867	74.4451	1014
209.23	74.1514	1010
213.716	74.959	1021
218.25	75.7666	1032
222.403	76.4273	1041
225.517	76.721	1045
226.904	76.4273	1041
224.752	74.959	1021
223.18	73.7109	1004
228.268	74.6653	1017
228.88	74.1514	1010
231.521	74.2982	1012
233.709	74.2982	1012
235.43	74.1514	1010
238.084	74.2982	1012
238.135	73.6375	1003
237.907	72.9033	993
239.812	72.8299	992
243.908	73.4172	1000
246.07	73.4172	1000
247.983	73.3438	999
250.643	73.4906	1001
252.555	73.4172	1000
256.245	73.8577	1006
262.016	74.8856	1020
264.739	75.0324	1022
267.47	75.1792	1024
272.054	75.84	1033
276.412	76.4273	1041
279.733	76.721	1045
279.833	76.1337	1037
276.906	74.7387	1018
276.914	74.1514	1010
278.821	74.078	1009
279.331	73.6375	1003
282.06	73.7843	1005
286.213	74.2982	1012
285.266	73.4906	1001
287.429	73.4906	1001
291.618	74.0046	1008
294.963	74.2982	1012
299.206	74.8122	1019
306.142	75.9868	1035
314.338	77.4552	1055
320.82	78.483	1069
321.922	78.1894	1065
322.398	77.7488	1059
321.928	77.0881	1050
321.11	76.3539	1040
324.602	76.6476	1044
329.363	77.2349	1052
333.529	77.6754	1058
332.642	76.9413	1048
335.227	77.0147	1049
338.46	77.2349	1052
343.649	77.8957	1061
350.181	78.8501	1074
351.518	78.6299	1071
351.521	78.1159	1064
349.165	77.0881	1050
349.427	76.6476	1044
353.705	77.0881	1050
358.687	77.6754	1058
364.727	78.483	1069
364.634	77.9691	1062
365.203	77.602	1057
368.53	77.8223	1060
375.37	78.7767	1073
380.857	79.4374	1082
384.967	79.8045	1087
387.673	79.8779	1088
388.591	79.5843	1084
389.492	79.2906	1080
390.012	78.9235	1075
378.833	76.2071	1038
379.608	75.9134	1034
380.735	75.6932	1031
388.536	76.7944	1046
387.061	76.0602	1036
382.912	74.8122	1019
383.225	74.4451	1014
387.698	74.8856	1020
392.961	75.4729	1028
395.568	75.5463	1029
393.926	74.8122	1019
396.518	74.8856	1020
400.286	75.1792	1024
404.858	75.6198	1030
405.899	75.3995	1027
407.722	75.3261	1026
411.538	75.6198	1030
416.577	76.1337	1037
415.991	75.6198	1030
416.187	75.2527	1025
414.321	74.5185	1015
412.412	73.7843	1005
415.409	73.9312	1007
420.489	74.4451	1014
426.016	75.0324	1022
429.482	75.2527	1025
427.907	74.5919	1016
430.527	74.6653	1017
428.896	74.0046	1008
435.351	74.7387	1018
435.833	74.4451	1014
434.569	73.8577	1006
439.349	74.2982	1012
444.154	74.7387	1018
447.67	74.959	1021
447.233	74.5185	1015
447.214	74.1514	1010
449.842	74.2248	1011
453.816	74.5185	1015
453.314	74.078	1009
457.753	74.4451	1014
463.573	75.0324	1022
467.15	75.2527	1025
466.618	74.8122	1019
468.821	74.8122	1019
470.561	74.7387	1018
475.084	75.1058	1023
480.095	75.5463	1029
480.913	75.3261	1026
479.835	74.8122	1019
482.984	74.959	1021
480.439	74.2248	1011
478.328	73.5641	1002
478.576	73.2704	998
482.178	73.4906	1001
487.729	74.0046	1008
495.254	74.8122	1019
498.434	74.959	1021
504.563	75.5463	1029
505.803	75.3995	1027
500.108	74.2248	1011
511.733	75.6198	1030
513.461	75.5463	1029
517.69	75.84	1033
523.95	76.4273	1041
526.2	76.4273	1041
523.374	75.6932	1031
518.465	74.6653	1017
513.496	73.6375	1003
517.207	73.8577	1006
520.414	74.0046	1008
524.149	74.2248	1011
528.937	74.5919	1016
530.088	74.4451	1014
528.605	73.9312	1007
529.728	73.7843	1005
532.959	73.9312	1007
533.542	73.7109	1004
533.578	73.4172	1000
536.275	73.4906	1001
538.977	73.5641	1002
543.843	73.9312	1007
543.851	73.6375	1003
537.309	72.4628	987
530.152	71.2147	970
532.797	71.2881	971
543.159	72.3894	986
549.162	72.9033	993
549.643	72.6831	990
545.095	71.802	978
544.411	71.435	973
545.391	71.2881	971
550.31	71.6552	976
558.079	72.3894	986
561.347	72.5362	988
561.772	72.316	985
560.466	71.8755	979
569.478	72.7565	991
578.542	73.6375	1003
580.711	73.6375	1003
577.068	72.9033	993
572.798	72.0957	982
569.066	71.3615	972
564.703	70.554	961
566.781	70.554	961
565.307	70.1135	955
565.589	69.8932	952
571.224	70.3337	958
576.287	70.7008	963
586.777	71.7286	977
591.3	72.0223	981
595.841	72.316	985
599.791	72.5362	988
597.662	72.0223	981
600.394	72.0957	982
608.653	72.8299	992
605.256	72.1691	983
603.055	71.6552	976
602.685	71.3615	972
601.053	70.921	966
598.771	70.4071	959
-737.603	76.7124	1015
-736.858	76.8636	1017
-736.826	77.0903	1020
-734.621	77.0903	1020
-734.57	77.317	1023
-743.813	78.5263	1039
-762.266	80.7181	1068
-767.073	81.4739	1078
-764.742	81.4739	1078
-756.047	80.7937	1069
-748.8	80.2646	1062
-744.396	80.0379	1059
-742.807	80.1135	1060
-747.502	80.8692	1070
-756.332	82.0785	1086
-753.984	82.0785	1086
-759.25	82.9099	1097
-756.878	82.9099	1097
-738.688	81.1716	1074
-716.483	78.9798	1045
-706.022	78.0728	1033
-705.152	78.224	1035
-702.914	78.224	1035
-704.739	78.6775	1041
-707.887	79.2821	1049
-703.602	79.0554	1046
-695.306	78.3752	1037
-683.708	77.317	1023
-681.496	77.317	1023
-648.076	73.7648	976
-660.527	75.4276	998
-670.904	76.8636	1017
-664.102	76.3345	1010
-656.676	75.7299	1002
-651.244	75.352	997
-655.599	76.1078	1007
-661.858	77.0903	1020
-665.473	77.7705	1029
-661.96	77.6194	1027
-659.74	77.6194	1027
-659.44	77.8461	1030
-662.957	78.5263	1039
-665.798	79.1309	1047
-659.732	78.6775	1041
-648.639	77.6194	1027
-633.831	76.1078	1007
-627.263	75.5787	1000
-623.226	75.352	997
-633.53	76.8636	1017
-643.126	78.2996	1036
-640.887	78.2996	1036
-643.579	78.9042	1044
-633.336	77.9217	1031
-623.762	77.0147	1019
-613.629	76.0322	1006
-602.945	74.9741	992
-598.984	74.7474	989
-601.674	75.352	997
-607.937	76.4101	1011
-611.743	77.1659	1021
-611.327	77.3926	1024
-604.95	76.8636	1017
-595.639	75.9566	1005
-591.105	75.6543	1001
-588.941	75.6543	1001
-583.26	75.2008	995
-581.109	75.2008	995
-573.721	74.5206	986
-572.169	74.5962	987
-570.036	74.5962	987
-571.354	75.0497	993
-574.367	75.7299	1002
-576.769	76.3345	1010
-573.448	76.1834	1008
-571.269	76.1834	1008
-571.348	76.4857	1012
-573.098	77.0147	1019
-573.696	77.3926	1024
-570.366	77.2415	1022
-568.157	77.2415	1022
-565.948	77.2415	1022
-563.187	77.1659	1021
-563.177	77.4682	1025
-559.867	77.317	1023
-556.02	77.0903	1020
-549.472	76.4857	1012
-548.366	76.6368	1014
-542.942	76.1834	1008
-542.372	76.4101	1011
-541.79	76.6368	1014
-533.212	75.7299	1002
-529.456	75.5032	999
-539.436	77.2415	1022
-535.65	77.0147	1019
-535.018	77.2415	1022
-538.543	78.0728	1033
-547.732	79.7356	1055
-550.105	80.4158	1064
-544.716	79.9623	1058
-528.586	77.9217	1031
-520.741	77.0903	1020
-512.436	76.1834	1008
-506.207	75.5787	1000
-504.549	75.6543	1001
-503.891	75.8811	1004
-502.221	75.9566	1005
-500.048	75.9566	1005
-502.334	76.6368	1014
-499.156	76.4857	1012
-492.548	75.8055	1003
-481.091	74.3695	984
-477.99	74.2183	982
-481.198	75.0497	993
-482.428	75.5787	1000
-483.148	76.0322	1006
-479.061	75.7299	1002
-475.467	75.5032	999
-469.991	74.9741	992
-473.506	75.8811	1004
-479.317	77.1659	1021
-491.596	79.5088	1052
-492.112	79.9623	1058
-490.288	80.0379	1059
-487.077	79.8867	1057
-479.289	78.9798	1045
-467.443	77.3926	1024
-454.78	75.6543	1001
-447.19	74.7474	989
-439.652	73.8404	977
-438.884	74.0672	980
-439.44	74.5206	986
-442.187	75.352	997
-449.3	76.9392	1018
-453.687	78.0728	1033
-456.699	78.9798	1045
-456.179	79.2821	1049
-449.584	78.5263	1039
-444.755	78.0728	1033
-436.096	76.9392	1018
-427.502	75.8055	1003
-419.821	74.823	990
-416.416	74.5962	987
-415.961	74.8985	991
-415.489	75.2008	995
-417.492	75.9566	1005
-419.039	76.6368	1014
-415.203	76.3345	1010
-407.703	75.352	997
-401.074	74.5206	986
-399.347	74.5962	987
-398.823	74.8985	991
-401.484	75.8055	1003
-405.686	77.0147	1019
-405.067	77.317	1023
-397.736	76.3345	1010
-390.461	75.352	997
-393.369	76.3345	1010
-387.313	75.5787	1000
-382.455	75.0497	993
-379.16	74.823	990
-373.211	74.0672	980
-372.229	74.2939	983
-370.48	74.3695	984
-370.225	74.7474	989
-368.831	74.8985	991
-368.539	75.2764	996
-364.915	74.9741	992
-381.055	78.753	1042
-372.622	77.4682	1025
-374.02	78.224	1035
-375.016	78.9042	1044
-388.112	82.1541	1087
-384.698	81.9274	1084
-374.242	80.189	1061
-365.988	78.9042	1044
-356.764	77.3926	1024
-353.165	77.0903	1020
-350.96	77.0903	1020
-348.071	76.9392	1018
-345.531	76.8636	1017
-343.332	76.8636	1017
-352.203	79.3577	1050
-352.6	79.9623	1058
-347.333	79.2821	1049
-335.525	77.0903	1020
-330.053	76.3345	1010
-326.895	76.1078	1007
-332.458	77.9217	1031
-332.151	78.3752	1037
-330.545	78.5263	1039
-328.615	78.6019	1040
-327.622	78.9042	1044
-319.756	77.5438	1026
-317.228	77.4682	1025
-317.779	78.1484	1034
-319.816	79.2065	1048
-320.58	79.9623	1058
-319.797	80.3402	1063
-310.928	78.6775	1041
-295.928	75.4276	998
-293.476	75.352	997
-297.457	76.9392	1018
-303.957	79.2065	1048
-307.161	80.6425	1067
-292.284	77.317	1023
-283.834	75.6543	1001
-282.514	75.8811	1004
-284.812	77.0903	1020
-282.33	77.0147	1019
-282.876	77.7705	1029
-284.197	78.753	1042
-282.756	78.9798	1045
-280.229	78.9042	1044
-272.913	77.4682	1025
-267.528	76.5613	1013
-263.767	76.1078	1007
-262.11	76.2589	1009
-265.338	77.8461	1030
-265.922	78.6775	1041
-265.951	79.3577	1050
-262.174	78.9042	1044
-255.934	77.6949	1028
-254.946	78.0728	1033
-251.49	77.6949	1028
-246.6	76.8636	1017
-244.642	76.9392	1018
-239.583	76.0322	1006
-233.869	74.8985	991
-230.557	74.5206	986
-229.353	74.823	990
-228.131	75.1253	994
-225.982	75.1253	994
-229.913	77.1659	1021
-228.152	77.317	1023
-219.094	74.9741	992
-218.699	75.5787	1000
-218.703	76.3345	1010
-214.59	75.6543	1001
-213.912	76.1834	1008
-211.523	76.1078	1007
-209.138	76.0322	1006
-207.169	76.1078	1007
-203.974	75.7299	1002
-194.356	72.9335	965
-192.071	72.8579	964
-189.987	72.8579	964
-188.683	73.1602	968
-185.434	72.7067	962
-185.451	73.5381	973
-187.681	75.2764	996
-189.813	77.0147	1019
-190.924	78.3752	1037
-188.864	78.4507	1038
-184.283	77.4682	1025
-180.291	76.7124	1015
-174.763	75.2764	996
-167.064	72.8579	964
-165.665	73.1602	968
-165.6	74.0672	980
-173.157	78.4507	1038
-171.901	78.9042	1044
-171.432	79.7356	1055
-171.396	80.7937	1069
-169.243	80.8692	1070
-166.618	80.7181	1068
-162.925	80.0379	1059
-157.753	78.6019	1040
-148.627	75.1253	994
-146.626	75.2008	995
-144.765	75.352	997
-145.614	76.9392	1018
-148.203	79.5088	1052
-145.235	79.1309	1047
-137.919	76.3345	1010
-136.274	76.6368	1014
-137.255	78.4507	1038
-134.491	78.1484	1034
-129.314	76.4101	1011
-128.763	77.3926	1024
-127.785	78.1484	1034
-126.279	78.6019	1040
-124.15	78.6775	1041
-120.611	77.8461	1030
-119.649	78.6775	1041
-119.316	79.9623	1058
-117.471	80.2646	1062
-114.308	79.66	1054
-109.585	77.9217	1031
-107.356	77.9217	1031
-105.535	78.224	1035
-103.198	78.1484	1034
-101.158	78.2996	1036
-99.1096	78.4507	1038
-96.7724	78.3752	1037
-96.6274	80.1135	1060
-95.5819	81.1716	1074
-93.9549	81.7762	1082
-87.4669	78.0728	1033
-84.3263	77.2415	1022
-81.8759	77.0147	1019
-79.6732	77.0147	1019
-77.3943	76.9392	1018
-75.046	76.788	1016
-73.4233	77.3926	1024
-72.3224	78.6019	1040
-70.748	79.3577	1050
-67.826	78.6019	1040
-64.3798	77.1659	1021
-62.0509	77.0147	1019
-59.8481	77.0147	1019
-57.5887	76.9392	1018
-55.3337	76.8636	1017
-52.6127	76.1078	1007
-49.935	75.352	997
-47.8757	75.5032	999
-46.1737	76.2589	1009
-44.603	77.317	1023
-42.7645	77.9973	1032
-40.6514	78.224	1035
-38.4512	78.2996	1036
-35.2679	76.2589	1009
-32.5293	74.9741	992
-30.3236	74.823	990
-28.8667	76.6368	1014
-27.3587	78.6019	1040
-25.3037	79.2065	1048
-22.7524	78.224	1035
-20.3763	77.6949	1028
-18.1894	77.8461	1030
-15.9008	77.5438	1026
-13.5495	76.788	1016
-11.3867	77.0147	1019
-9.25606	77.6194	1027
-7.01543	77.3926	1024
-4.75025	76.5613	1013
-2.48713	74.3695	984
-0.359273	74.2183	982
1.78508	75.1253	994
4.03276	77.0147	1019
6.23555	77.0147	1019
8.14851	74.3695	984
10.1921	73.7648	976
12.3019	73.7648	976
14.6923	75.2008	995
17.131	76.4857	1012
19.7004	77.9973	1032
21.9951	78.224	1035
23.7642	76.7124	1015
25.498	75.352	997
27.4868	74.8985	991
30.3466	76.7124	1015
32.5408	76.7124	1015
34.8376	76.9392	1018
36.929	76.7124	1015
39.4701	77.3926	1024
41.7244	77.4682	1025
43.8973	77.3926	1024
44.76	75.1253	994
47.2863	75.7299	1002
49.7978	76.2589	1009
52.8547	77.5438	1026
54.9116	77.317	1023
56.2296	76.1078	1007
58.1744	75.8055	1003
59.5605	74.823	990
61.202	74.2183	982
62.551	73.3114	970
64.1814	72.7823	963
66.0567	72.5556	960
68.2738	72.7067	962
70.7191	73.0846	967
74.0895	74.3695	984
77.8432	75.9566	1005
82.1654	77.9973	1032
84.8051	78.3752	1037
84.9483	76.4857	1012
85.8444	75.352	997
87.5583	74.9741	992
89.4315	74.7474	989
90.2732	73.6893	975
91.3386	72.8579	964
94.004	73.3114	970
98.3795	75.0497	993
102.247	76.3345	1010
105.878	77.3926	1024
108.514	77.6949	1028
108.258	75.9566	1005
109.222	75.1253	994
111.931	75.5032	999
116.261	76.9392	1018
120.789	78.4507	1038
122.558	78.1484	1034
122.983	77.0147	1019
126.783	77.9973	1032
128.264	77.5438	1026
128.829	76.5613	1013
130.242	76.1078	1007
132.551	76.1834	1008
134.195	75.8811	1004
135.551	75.4276	998
137.432	75.2764	996
141.547	76.3345	1010
143.161	76.0322	1006
145.336	76.0322	1006
149.27	76.9392	1018
154	78.224	1035
154.728	77.4682	1025
158.475	78.224	1035
159.936	77.8461	1030
161.06	77.317	1023
162.953	77.1659	1021
165.322	77.2415	1022
158.187	72.9335	965
159.277	72.48	959
161.35	72.48	959
163.764	72.6312	961
166.014	72.7067	962
169.142	73.1602	968
172.649	73.7648	976
175.117	73.916	978
177.413	73.9916	979
180.446	74.3695	984
181.831	74.0672	980
184.137	74.1427	981
185.688	73.916	978
187.418	73.7648	976
188.557	73.387	971
193.209	74.3695	984
194.542	74.0672	980
196.459	73.9916	979
197.764	73.6893	975
198.642	73.2358	969
200.53	73.1602	968
207.855	75.0497	993
213.174	76.1834	1008
218.344	77.2415	1022
215.59	75.5032	999
203.799	70.6661	935
204.72	70.2882	930
213.621	72.6312	961
218.392	73.5381	973
221.175	73.7648	976
222.37	73.4625	972
223.779	73.2358	969
225.873	73.2358	969
226.792	72.8579	964
227.451	72.4044	958
227.605	71.7998	950
232.076	72.5556	960
237.079	73.4625	972
241.148	74.0672	980
244.508	74.4451	985
246.136	74.2939	983
248.009	74.2183	982
249.622	74.0672	980
252.768	74.3695	984
255.931	74.6718	988
260.157	75.2764	996
263.89	75.7299	1002
266.322	75.8055	1003
270.364	76.3345	1010
270.388	75.7299	1002
270.378	75.1253	994
270.334	74.5206	986
271.912	74.3695	984
269.862	73.2358	969
270.834	72.9335	965
271.506	72.5556	960
276.146	73.2358	969
277.092	72.9335	965
280.336	73.2358	969
281.847	73.0846	967
284.819	73.3114	970
290.169	74.1427	981
300.93	76.3345	1010
306.115	77.0903	1020
309.529	77.3926	1024
312.047	77.4682	1025
311.81	76.8636	1017
310.303	75.9566	1005
313.719	76.2589	1009
321.223	77.5438	1026
322.495	77.317	1023
322.485	76.788	1016
323.722	76.5613	1013
327.199	76.8636	1017
330.045	77.0147	1019
327.031	75.8055	1003
326.902	75.2764	996
328.394	75.1253	994
335.199	76.1834	1008
338.382	76.4101	1011
342.925	76.9392	1018
346.143	77.1659	1021
351.762	77.9217	1031
354.334	77.9973	1032
354.837	77.6194	1027
358.1	77.8461	1030
362.776	78.3752	1037
368.537	79.1309	1047
372.571	79.5088	1052
353.467	74.9741	992
360.988	76.1078	1007
365.329	76.5613	1013
359.537	74.8985	991
361.679	74.8985	991
365.29	75.2008	995
365.225	74.7474	989
364.763	74.2183	982
357.919	72.4044	958
364.499	73.3114	970
369.62	73.916	978
376.295	74.823	990
382.64	75.6543	1001
381.344	74.9741	992
379.623	74.2183	982
384.855	74.823	990
390.905	75.5787	1000
393.459	75.6543	1001
396.414	75.8055	1003
397.39	75.5787	1000
399.951	75.6543	1001
403.32	75.8811	1004
399.028	74.6718	988
398.322	74.1427	981
398.401	73.7648	976
399.691	73.6137	974
404.684	74.1427	981
408.878	74.5206	986
413.51	74.9741	992
416.074	75.0497	993
414.43	74.3695	984
412.747	73.6893	975
416.131	73.916	978
416.535	73.6137	974
420.359	73.916	978
423.77	74.1427	981
425.89	74.1427	981
428.447	74.2183	982
430.57	74.2183	982
430.93	73.916	978
432.159	73.7648	976
432.044	73.387	971
432.355	73.0846	967
435.343	73.2358	969
438.792	73.4625	972
441.801	73.6137	974
444.362	73.6893	975
449.675	74.2183	982
450.418	73.9916	979
450.685	73.6893	975
452.793	73.6893	975
457.233	74.0672	980
458.883	73.9916	979
459.587	73.7648	976
463.116	73.9916	979
466.182	74.1427	981
462.097	73.1602	968
467.067	73.6137	974
469.654	73.6893	975
476.117	74.3695	984
484.076	75.2764	996
486.229	75.2764	996
482.988	74.4451	985
479.207	73.5381	973
478.838	73.1602	968
476.459	72.48	959
475.538	72.0265	953
502.154	75.7299	1002
507.844	76.2589	1009
504.97	75.5032	999
493.931	73.5381	973
491.446	72.8579	964
504.281	74.4451	985
506.925	74.5206	986
508.54	74.4451	985
507.04	73.916	978
505.51	73.387	971
507.086	73.3114	970
508.133	73.1602	968
516.551	74.0672	980
528.196	75.4276	998
529.822	75.352	997
529.309	74.9741	992
526.096	74.2183	982
528.757	74.2939	983
527.101	73.7648	976
528.669	73.6893	975
525.333	72.9335	965
524.686	72.5556	960
526.761	72.5556	960
534.345	73.3114	970
542.526	74.1427	981
537.429	73.1602	968
530.603	71.951	952
528.185	71.3463	944
531.349	71.4975	946
537.905	72.1021	954
547.325	73.0846	967
551.688	73.387	971
546.373	72.4044	958
538.139	71.044	940
535.574	70.4394	932
536.435	70.2882	930
540.761	70.5905	934
545.105	70.8929	938
541.883	70.2126	929
540.379	69.7592	923
539.436	69.3813	918
541.42	69.3813	918
539.261	68.8522	911
544.795	69.3057	917
552.74	70.0615	927
565.516	71.4219	945
572.363	72.0265	953
575.629	72.1777	955
577.693	72.1777	955
577.329	71.8754	951
578.776	71.7998	950
585.109	72.3288	957
585.337	72.1021	954
586.168	71.951	952
585.137	71.5731	947
582.844	71.044	940
581.142	70.5905	934
585.034	70.8173	937
-720.06	76.5741	985
-720.117	76.8074	988
-714.348	76.4187	983
-712.948	76.4964	984
-715.155	76.9628	990
-713.015	76.9628	990
-723.082	78.2844	1007
-733.075	79.606	1024
-748.705	81.5495	1049
-754.976	82.4824	1061
-749.135	82.0937	1056
-746.852	82.0937	1056
-729.763	80.4612	1035
-721.902	79.8392	1027
-718.981	79.7615	1026
-720.955	80.2279	1032
-722.903	80.6944	1038
-720.659	80.6944	1038
-732.949	82.3269	1059
-724.451	81.6273	1050
-711.864	80.4612	1035
-692.486	78.5176	1010
-683.468	77.7402	1000
-679.943	77.5848	998
-677.786	77.5848	998
-681.044	78.2067	1006
-678.195	78.1289	1005
-667.951	77.1961	993
-647.701	75.0971	966
-628.904	73.1536	941
-635.53	74.1642	954
-644.092	75.408	970
-641.995	75.408	970
-641.877	75.6413	973
-639.774	75.6413	973
-637.671	75.6413	973
-639.487	76.1077	979
-644.532	76.9628	990
-647.583	77.5848	998
-647.365	77.818	1001
-643.268	77.5848	998
-641.11	77.5848	998
-640.874	77.818	1001
-642.538	78.2844	1007
-646.085	78.9841	1016
-634.382	77.818	1001
-623.376	76.7296	987
-616.207	76.1077	979
-609.7	75.5635	972
-610.099	75.8745	976
-612.973	76.4964	984
-617.674	77.3515	995
-615.523	77.3515	995
-612.756	77.2738	994
-614.293	77.7402	1000
-606.01	76.9628	990
-593.5	75.6413	973
-587.142	75.0971	966
-586.871	75.3303	969
-587.19	75.6413	973
-592.303	76.5741	985
-591.971	76.8074	988
