-119.205	65.7097	411
-118.028	65.5498	410
-117.142	65.5498	410
-119.091	67.1486	420
-118.465	67.3084	421
-116.717	66.8288	418
-114.705	66.1893	414
-113.535	66.0294	413
-112.642	66.0294	413
-111.75	66.0294	413
-111.662	66.5091	416
-111.562	66.9887	419
-112.505	68.1078	426
-111.06	67.7881	424
-109.104	67.1486	420
-106.393	66.0294	413
-105.5	66.0294	413
-104.354	65.8696	412
-103.463	65.8696	412
-102.822	66.0294	413
-101.435	65.7097	411
-100.547	65.7097	411
-99.9009	65.8696	412
-99.4909	66.1893	414
-97.8815	65.7097	411
-96.993	65.7097	411
-96.1046	65.7097	411
-96.8378	66.8288	418
-96.1637	66.9887	419
-95.0306	66.8288	418
-94.3522	66.9887	419
-93.4464	66.9887	419
-92.0989	66.6689	417
-90.7601	66.3492	415
-89.4299	66.0294	413
-88.3228	65.8696	412
-88.0688	66.3492	415
-87.8018	66.8288	418
-87.5219	67.3084	421
-85.5832	66.5091	416
-84.6839	66.5091	416
-84.1874	66.8288	418
-83.4831	66.9887	419
-82.5773	66.9887	419
-81.0868	66.5091	416
-78.6455	65.23	408
-76.6199	64.2708	402
-75.5625	64.1109	401
-75.4407	64.7504	405
-75.1175	65.23	408
-74.5995	65.5498	410
-74.2525	66.0294	413
-73.5374	66.1893	414
-72.6424	66.1893	414
-71.4009	65.8696	412
-70.1679	65.5498	410
-68.9437	65.23	408
-68.0617	65.23	408
-68.003	66.0294	413
-66.7852	65.7097	411
-65.2554	65.0702	407
-64.8501	65.5498	410
-64.7439	66.3492	415
-64.9237	67.4683	422
-64.1631	67.6282	423
-63.0992	67.4683	422
-61.3028	66.5091	416
-60.1131	66.1893	414
-59.3612	66.3492	415
-59.0276	66.9887	419
-57.7057	66.5091	416
-56.1237	65.7097	411
-54.832	65.23	408
-53.1566	64.2708	402
-52.5478	64.5905	404
-51.6744	64.5905	404
-51.1783	65.0702	407
-50.5457	65.3899	409
-49.783	65.5498	410
-49.0159	65.7097	411
-48.2446	65.8696	412
-47.5838	66.1893	414
-46.9144	66.5091	416
-46.1258	66.6689	417
-44.5736	65.7097	411
-43.26	65.0702	407
-42.5884	65.3899	409
-41.5004	65.0702	407
-40.7203	65.23	408
-39.5454	64.7504	405
-38.6699	64.7504	405
-37.7944	64.7504	405
-37.1013	65.0702	407
-36.5774	65.7097	411
-35.8626	66.0294	413
-35.1392	66.3492	415
-34.4896	66.8288	418
-33.5057	66.6689	417
-32.526	66.5091	416
-31.4747	66.1893	414
-30.3582	65.7097	411
-29.7565	66.3492	415
-28.9289	66.5091	416
-27.8949	66.1893	414
-26.7391	65.5498	410
-25.9158	65.7097	411
-25.0883	65.8696	412
-24.0802	65.5498	410
-22.9676	64.9103	406
-21.9267	64.4306	403
-21.16	64.7504	405
-20.4849	65.3899	409
-19.6966	65.7097	411
-18.6251	65.0702	407
-17.6145	64.5905	404
-16.6997	64.4306	403
-15.9464	64.9103	406
-15.2172	65.5498	410
-14.4707	66.1893	414
-13.5429	66.0294	413
-12.5276	65.3899	409
-11.5296	64.7504	405
-10.6804	64.9103	406
-9.77861	64.7504	405
-8.85915	64.4306	403
-7.98798	64.4306	403
-7.22277	65.3899	409
-6.36962	65.7097	411
-5.49449	65.8696	412
-4.58152	65.5498	410
-3.65015	64.7504	405
-2.77466	64.7504	405
-1.91323	65.23	408
-1.03125	65.23	408
-0.150002	65.5498	410
0.738097	65.7097	411
1.6226	65.5498	410
2.52727	66.0294	413
3.43662	66.3492	415
4.32328	66.1893	414
5.20563	66.0294	413
6.14272	66.5091	416
7.02506	66.3492	415
7.90308	66.1893	414
8.73428	65.7097	411
9.55251	65.23	408
10.5112	65.7097	411
11.6493	67.1486	420
12.318	65.8696	412
13.2407	66.0294	413
14.1335	66.0294	413
14.9899	65.8696	412
15.842	65.7097	411
16.6898	65.5498	410
17.5761	65.5498	410
18.4624	65.5498	410
19.3959	65.7097	411
20.235	65.5498	410
21.0698	65.3899	409
22.0076	65.5498	410
23.0614	66.0294	413
24.1862	66.6689	417
25.1478	66.8288	418
25.7398	66.0294	413
26.1811	64.9103	406
26.8589	64.4306	403
27.6612	64.2708	402
28.3173	63.7911	399
29.1798	63.7911	399
30.2683	64.2708	402
31.2922	64.5905	404
33.0413	66.3492	415
34.1838	66.8288	418
34.8355	66.3492	415
35.5604	66.0294	413
36.5415	66.1893	414
37.1652	65.7097	411
38.1462	65.8696	412
39.3211	66.3492	415
40.1213	66.1893	414
41.1153	66.3492	415
41.9112	66.1893	414
43.0129	66.5091	416
43.8066	66.3492	415
44.3806	65.8696	412
44.9416	65.3899	409
45.6016	65.0702	407
46.3672	64.9103	406
46.8958	64.4306	403
47.6484	64.2708	402
48.6381	64.4306	403
49.6322	64.5905	404
50.7555	64.9103	406
51.506	64.7504	405
52.5108	64.9103	406
53.52	65.0702	407
54.6671	65.3899	409
55.9587	65.8696	412
57.2633	66.3492	415
57.74	65.8696	412
57.7768	64.9103	406
58.51	64.7504	405
59.3855	64.7504	405
59.9634	64.4306	403
60.6836	64.2708	402
61.7057	64.4306	403
62.5769	64.4306	403
63.7629	64.7504	405
64	64.1109	401
64.7051	63.951	400
65.8976	64.2708	402
67.0988	64.5905	404
68.4769	65.0702	407
69.6975	65.3899	409
70.064	64.9103	406
70.7669	64.7504	405
72.1731	65.23	408
73.4132	65.5498	410
73.7558	65.0702	407
73.352	63.951	400
73.2889	63.1516	395
74.3305	63.3115	396
75.7562	63.7911	399
77.0027	64.1109	401
78.0638	64.2708	402
78.9328	64.2708	402
79.0077	63.6313	398
79.6674	63.4714	397
80.7285	63.6313	398
82.4088	64.2708	402
84.3136	65.0702	407
84.9841	64.9103	406
85.4388	64.5905	404
85.6712	64.1109	401
85.0274	62.9918	394
86.3151	63.3115	396
87.3912	63.4714	397
87.138	62.672	392
89.1076	63.4714	397
89.9658	63.4714	397
91.5104	63.951	400
92.606	64.1109	401
92.5404	63.4714	397
93.3986	63.4714	397
94.4943	63.6313	398
96.313	64.2708	402
97.6655	64.5905	404
98.5388	64.5905	404
98.92	64.2708	402
100.037	64.4306	403
100.908	64.4306	403
102.285	64.7504	405
103.16	64.7504	405
103.265	64.2708	402
104.393	64.4306	403
106.309	65.0702	407
107.716	65.3899	409
108.334	65.23	408
110.019	65.7097	411
111.717	66.1893	414
113.156	66.5091	416
110.491	64.4306	403
109.981	63.6313	398
109.17	62.672	392
109.737	62.5121	391
110.299	62.3522	390
111.427	62.5121	391
113.134	62.9918	394
115.143	63.6313	398
116.586	63.951	400
117.157	63.7911	399
118.316	63.951	400
119.18	63.951	400
120.045	63.951	400
121.817	64.4306	403
121.774	63.951	400
122.639	63.951	400
123.813	64.1109	401
125.301	64.4306	403
127.425	65.0702	407
128.935	65.3899	409
130.454	65.7097	411
131.342	65.7097	411
132.553	65.8696	412
133.119	65.7097	411
131.073	64.2708	402
131.286	63.951	400
131.49	63.6313	398
133.015	63.951	400
135.219	64.5905	404
136.766	64.9103	406
138.322	65.23	408
142.274	66.6689	417
143.176	66.6689	417
144.077	66.6689	417
144.631	66.5091	416
144.83	66.1893	414
145.373	66.0294	413
144.85	65.3899	409
142.527	63.951	400
141.241	62.9918	394
144.256	63.951	400
145.846	64.2708	402
146.716	64.2708	402
147.217	64.1109	401
148.084	64.1109	401
150.808	64.9103	406
153.18	65.5498	410
154.818	65.8696	412
154.197	65.23	408
154.319	64.9103	406
153.285	64.1109	401
155.305	64.5905	404
156.179	64.5905	404
157.83	64.9103	406
160.271	65.5498	410
161.55	65.7097	411
162.043	65.5498	410
163.327	65.7097	411
163.417	65.3899	409
163.096	64.9103	406
164.377	65.0702	407
163.633	64.4306	403
161.647	63.3115	396
160.451	62.5121	391
161.296	62.5121	391
164.215	63.3115	396
167.572	64.2708	402
171.374	65.3899	409
170.573	64.7504	405
169.755	64.1109	401
170.622	64.1109	401
172.772	64.5905	404
174.505	64.9103	406
176.247	65.23	408
178.431	65.7097	411
179.32	65.7097	411
178.454	65.0702	407
178.893	64.9103	406
178	64.2708	402
177.089	63.6313	398
177.502	63.4714	397
178.361	63.4714	397
178.767	63.3115	396
180.531	63.6313	398
181.391	63.6313	398
183.167	63.951	400
183.112	63.6313	398
183.51	63.4714	397
185.297	63.7911	399
185.226	63.4714	397
185.147	63.1516	395
187.413	63.6313	398
188.747	63.7911	399
190.085	63.951	400
189.995	63.6313	398
191.334	63.7911	399
194.124	64.4306	403
196.446	64.9103	406
197.81	65.0702	407
198.69	65.0702	407
200.06	65.23	408
199.957	64.9103	406
200.34	64.7504	405
202.209	65.0702	407
205.085	65.7097	411
206.976	66.0294	413
206.862	65.7097	411
206.739	65.3899	409
208.639	65.7097	411
209.018	65.5498	410
208.88	65.23	408
209.762	65.23	408
208.579	64.5905	404
208.415	64.2708	402
211.367	64.9103	406
212.244	64.9103	406
211.022	64.2708	402
211.891	64.2708	402
216.994	65.5498	410
217.881	65.5498	410
219.834	65.8696	412
218.582	65.23	408
217.85	64.7504	405
217.645	64.4306	403
219.059	64.5905	404
222.11	65.23	408
224.085	65.5498	410
224.971	65.5498	410
224.756	65.23	408
224.531	64.9103	406
223.188	64.2708	402
223.5	64.1109	401
226.605	64.7504	405
229.165	65.23	408
228.356	64.7504	405
229.231	64.7504	405
227.834	64.1109	401
229.842	64.4306	403
234.148	65.3899	409
235.607	65.5498	410
235.339	65.23	408
236.8	65.3899	409
235.36	64.7504	405
235.652	64.5905	404
237.111	64.7504	405
237.986	64.7504	405
237.092	64.2708	402
233.818	63.1516	395
234.078	62.9918	394
234.333	62.8319	393
235.781	62.9918	394
237.834	63.3115	396
240.498	63.7911	399
237.731	62.8319	393
239.188	62.9918	394
239.43	62.8319	393
240.28	62.8319	393
243.584	63.4714	397
245.673	63.7911	399
247.154	63.951	400
248.639	64.1109	401
248.883	63.951	400
247.25	63.3115	396
245.6	62.672	392
-315.655	69.3527	428
-312.523	68.8666	425
-311.605	68.8666	425
-311.417	69.0286	426
-311.225	69.1907	427
-312.482	69.6768	430
-311.552	69.6768	430
-308.456	69.1907	427
-307.533	69.1907	427
-305.892	69.0286	426
-308.55	69.8388	431
-311.187	70.649	436
-311.668	70.9731	438
-310.721	70.9731	438
-308.36	70.649	436
-298.251	68.5425	423
-297.337	68.5425	423
-297.824	68.8666	425
-298.302	69.1907	427
-297.379	69.1907	427
-296.456	69.1907	427
-296.225	69.3527	428
-292.54	68.7046	424
-286.809	67.5703	417
-286.593	67.7323	418
-282.956	67.0842	414
-282.061	67.0842	414
-283.882	67.7323	418
-285.01	68.2184	421
-288.149	69.1907	427
-288.571	69.5148	429
-289.655	70.0009	432
-292.063	70.8111	437
-291.118	70.8111	437
-293.493	71.6213	442
-291.876	71.4592	441
-286.305	70.325	434
-282.079	69.5148	429
-281.152	69.5148	429
-281.531	69.8388	431
-281.901	70.1629	433
-280.965	70.1629	433
-278.736	69.8388	431
-277.159	69.6768	430
-274.945	69.3527	428
-272.739	69.0286	426
-273.733	69.5148	429
-274.077	69.8388	431
-271.244	69.3527	428
-265.898	68.2184	421
-264.988	68.2184	421
-264.078	68.2184	421
-265.668	68.8666	425
-265.372	69.0286	426
-263.831	68.8666	425
-262.293	68.7046	424
-263.843	69.3527	428
-262.303	69.1907	427
-264.441	70.0009	432
-262.897	69.8388	431
-261.965	69.8388	431
-259.822	69.5148	429
-258.291	69.3527	428
-257.366	69.3527	428
-255.842	69.1907	427
-254.322	69.0286	426
-252.211	68.7046	424
-251.295	68.7046	424
-253.331	69.5148	429
-252.403	69.5148	429
-250.303	69.1907	427
-247.044	68.5425	423
-246.712	68.7046	424
-246.375	68.8666	425
-245.456	68.8666	425
-242.811	68.3805	422
-241.899	68.3805	422
-239.845	68.0564	420
-240.643	68.5425	423
-241.429	69.0286	426
-239.379	68.7046	424
-237.338	68.3805	422
-236.426	68.3805	422
-234.397	68.0564	420
-235.713	68.7046	424
-234.796	68.7046	424
-233.328	68.5425	423
-230.765	68.0564	420
-227.121	67.2462	415
-225.679	67.0842	414
-226.413	67.5703	417
-225.511	67.5703	417
-225.687	67.8944	419
-224.245	67.7323	418
-225.479	68.3805	422
-226.695	69.0286	426
-225.774	69.0286	426
-225.909	69.3527	428
-227.086	70.0009	432
-224.582	69.5148	429
-221.569	68.8666	425
-219.093	68.3805	422
-217.664	68.2184	421
-217.783	68.5425	423
-217.894	68.8666	425
-215.444	68.3805	422
-214.023	68.2184	421
-212.607	68.0564	420
-211.195	67.8944	419
-210.289	67.8944	419
-210.383	68.2184	421
-211.961	69.0286	426
-213.021	69.6768	430
-211.599	69.5148	429
-211.162	69.6768	430
-209.744	69.5148	429
-206.869	68.8666	425
-203.043	67.8944	419
-203.102	68.2184	421
-202.673	68.3805	422
-202.238	68.5425	423
-200.848	68.3805	422
-199.462	68.2184	421
-198.08	68.0564	420
-196.233	67.7323	418
-194.863	67.5703	417
-193.031	67.2462	415
-190.745	66.7601	412
-194.923	68.5425	423
-196.302	69.3527	428
-194.92	69.1907	427
-193.089	68.8666	425
-191.265	68.5425	423
-189.001	68.0564	420
-187.645	67.8944	419
-186.294	67.7323	418
-184.503	67.4082	416
-184.045	67.5703	417
-183.144	67.5703	417
-183.117	67.8944	419
-182.646	68.0564	420
-181.305	67.8944	419
-181.26	68.2184	421
-180.779	68.3805	422
-179.44	68.2184	421
-180.65	69.0286	426
-180.573	69.3527	428
-180.068	69.5148	429
-179.14	69.5148	429
-177.382	69.1907	427
-174.806	68.5425	423
-171.836	67.7323	418
-166.026	65.7879	406
-165.555	65.9499	407
-165.889	66.436	410
-167.417	67.4082	416
-168.119	68.0564	420
-170.396	69.3527	428
-170.263	69.6768	430
-168.546	69.3527	428
-166.054	68.7046	424
-163.19	67.8944	419
-162.671	68.0564	420
-160.608	67.5703	417
-158.941	67.2462	415
-157.282	66.9221	413
-155.632	66.5981	411
-157.002	67.5703	417
-156.475	67.7323	418
-155.572	67.7323	418
-154.668	67.7323	418
-153.397	67.5703	417
-151.764	67.2462	415
-151.594	67.5703	417
-150.331	67.4082	416
-149.072	67.2462	415
-147.461	66.9221	413
-145.859	66.5981	411
-143.912	66.1119	408
-141.628	65.4638	404
-139.361	64.8156	400
-139.881	65.4638	404
-141.072	66.436	410
-141.212	66.9221	413
-140.998	67.2462	415
-140.776	67.5703	417
-138.869	67.0842	414
-136.307	66.274	409
-134.43	65.7879	406
-133.881	65.9499	407
-133.001	65.9499	407
-132.446	66.1119	408
-132.854	66.7601	412
-131.323	66.436	410
-130.755	66.5981	411
-130.498	66.9221	413
-129.919	67.0842	414
-129.336	67.2462	415
-127.82	66.9221	413
-126.005	66.436	410
-124.814	66.274	409
-124.232	66.436	410
-123.948	66.7601	412
-122.161	66.274	409
-120.98	66.1119	408
-119.51	65.7879	406
-118.34	65.6258	405
-116.884	65.3017	403
-116.301	65.4638	404
-117.142	66.436	410
-117.957	67.4082	416
-116.776	67.2462	415
-116.717	67.7323	418
-113.32	66.274	409
-111.061	65.4638	404
-110.46	65.6258	405
-109.856	65.7879	406
-110.052	66.436	410
-109.698	66.7601	412
-109.335	67.0842	414
-106.607	65.9499	407
-105.987	66.1119	408
-105.105	66.1119	408
-102.69	65.1397	402
-102.328	65.4638	404
-100.952	65.1397	402
-100.581	65.4638	404
-100.201	65.7879	406
-99.5683	65.9499	407
-99.1735	66.274	409
-97.8087	65.9499	407
-96.9289	65.9499	407
-96.0491	65.9499	407
-94.9354	65.7879	406
-93.3627	65.3017	403
-94.7867	66.9221	413
-94.3486	67.2462	415
-92.7759	66.7601	412
-91.4392	66.436	410
-90.9946	66.7601	412
-89.6666	66.436	410
-88.5638	66.274	409
-87.894	66.436	410
-87.6443	66.9221	413
-87.1717	67.2462	415
-86.2746	67.2462	415
-85.3774	67.2462	415
-83.8696	66.7601	412
-82.7776	66.5981	411
-81.2914	66.1119	408
-80.6065	66.274	409
-79.5274	66.1119	408
-77.8744	65.4638	404
-76.6199	65.1397	402
-75.5625	64.9777	401
-74.6956	64.9777	401
-74.3811	65.4638	404
-73.5078	65.4638	404
-72.994	65.7879	406
-72.4716	66.1119	408
-71.7651	66.274	409
-70.7076	66.1119	408
-69.3122	65.6258	405
-67.5919	64.8156	400
-66.894	64.9777	401
-66.5211	65.4638	404
-65.6478	65.4638	404
-65.5761	66.274	409
-64.2174	65.7879	406
-63.9638	66.436	410
-63.3852	66.7601	412
-63.253	67.5703	417
-61.604	66.7601	412
-59.9765	65.9499	407
-58.3707	65.1397	402
-57.5017	65.1397	402
-57.3371	65.9499	407
-57.0121	66.5981	411
-54.7581	64.9777	401
-53.7569	64.8156	400
-53.2889	65.3017	403
-52.5478	65.4638	404
-51.6744	65.4638	404
-50.5496	65.1397	402
-50.2985	65.9499	407
-49.5401	66.1119	408
-48.7774	66.274	409
-48.0104	66.436	410
-47.3539	66.7601	412
-46.3505	66.5981	411
-44.909	65.7879	406
-43.9229	65.6258	405
-43.0474	65.6258	405
-42.3802	65.9499	407
-41.5004	65.9499	407
-40.4209	65.6258	405
-39.5454	65.6258	405
-38.6699	65.6258	405
-37.5145	65.1397	402
-36.9189	65.6258	405
-36.3104	66.1119	408
-35.5153	66.274	409
-34.4618	65.9499	407
-33.6645	66.1119	408
-32.7022	65.9499	407
-32.0569	66.436	410
-31.0186	66.1119	408
-30.1366	66.1119	408
-29.4697	66.5981	411
-28.6508	66.7601	412
-27.558	66.274	409
-26.2826	65.3017	403
-25.2853	64.9777	401
-24.5402	65.3017	403
-23.5516	64.9777	401
-22.515	64.4915	398
-21.6547	64.4915	398
-20.8988	64.8156	400
-20.0842	64.9777	401
-19.5528	66.1119	408
-18.6708	66.1119	408
-17.5709	65.3017	403
-16.6997	65.3017	403
-15.9071	65.6258	405
-15.18	66.274	409
-14.3309	66.436	410
-13.4445	66.436	410
-12.4357	65.7879	406
-11.5011	65.4638	404
-10.5489	64.9777	401
-9.68203	64.9777	401
-8.81519	64.9777	401
-7.94834	64.9777	401
-7.08149	64.9777	401
-6.19915	64.8156	400
-5.37447	65.3017	403
-4.54799	65.9499	407
-3.64114	65.4638	404
-2.76095	65.3017	403
-1.8804	64.9777	401
-1.02872	65.9499	407
-0.148905	65.9499	407
0.730913	65.9499	407
1.61469	66.1119	408
2.50279	66.274	409
3.37865	66.1119	408
4.21886	65.4638	404
5.05438	64.9777	401
5.83263	64.0054	395
6.78807	64.9777	401
7.75037	65.7879	406
8.77678	66.9221	413
9.81005	67.8944	419
10.767	68.2184	421
11.4274	66.7601	412
12.1984	66.1119	408
13.0804	66.1119	408
13.8255	65.4638	404
14.6625	65.3017	403
15.6878	65.9499	407
16.5676	65.9499	407
17.3617	65.6258	405
18.1922	65.4638	404
19.0183	65.3017	403
19.9882	65.6258	405
20.8637	65.6258	405
21.7929	65.7879	406
22.838	66.274	409
23.6062	65.9499	407
24.3657	65.6258	405
25.2412	65.6258	405
26.1167	65.6258	405
26.7922	65.1397	402
27.4548	64.6536	399
28.1044	64.1675	396
28.8873	64.0054	395
29.7412	64.0054	395
30.6725	64.1675	396
31.847	64.8156	400
33.0388	65.4638	404
34.2479	66.1119	408
35.1299	66.1119	408
36.0119	66.1119	408
36.8939	66.1119	408
37.7759	66.1119	408
38.8473	66.436	410
39.6367	66.274	409
40.5209	66.274	409
41.405	66.274	409
42.1858	66.1119	408
43.0677	66.1119	408
43.4111	65.3017	403
43.8428	64.6536	399
44.8173	64.8156	400
45.4536	64.4915	398
46.1976	64.3295	397
46.9373	64.1675	396
48.0347	64.4915	398
49.2636	64.9777	401
50.0054	64.8156	400
51.506	65.6258	405
52.3815	65.6258	405
53.257	65.6258	405
53.8652	65.3017	403
54.8722	65.4638	404
56.0215	65.7879	406
57.0393	65.9499	407
57.9191	65.9499	407
58.3655	65.4638	404
58.9456	65.1397	402
59.517	64.8156	400
60.3817	64.8156	400
60.787	64.3295	397
61.1794	63.8434	394
62.5034	64.3295	397
63.5212	64.4915	398
64.5433	64.6536	399
65.4059	64.6536	399
66.1023	64.4915	398
67.6357	65.1397	402
68.8455	65.4638	404
69.5462	65.3017	403
70.068	64.9777	401
70.581	64.6536	399
71.9807	65.1397	402
73.2122	65.4638	404
74.0855	65.4638	404
74.2167	64.8156	400
74.7059	64.4915	398
75.1866	64.1675	396
76.2346	64.3295	397
77.4812	64.6536	399
77.7547	64.1675	396
78.4122	64.0054	395
78.8647	63.6813	393
79.5115	63.5193	392
80.7688	63.8434	394
82.8635	64.8156	400
83.7282	64.8156	400
83.5355	64.0054	395
84.3894	64.0054	395
84.8116	63.6813	393
85.6612	63.6813	393
86.0705	63.3573	391
86.9157	63.3573	391
86.8631	62.7091	387
88.3795	63.1952	390
90.1377	63.8434	394
91.2204	64.0054	395
92.3073	64.1675	396
92.9281	64.0054	395
93.782	64.0054	395
95.5942	64.6536	399
96.9402	64.9777	401
97.8071	64.9777	401
98.6739	64.9777	401
100.534	65.6258	405
101.91	65.9499	407
102.285	65.6258	405
102.905	65.4638	404
101.981	64.3295	397
103.357	64.6536	399
104.481	64.8156	400
106.135	65.3017	403
106.741	65.1397	402
107.342	64.9777	401
107.939	64.8156	400
107.988	64.3295	397
108.298	64.0054	395
107.494	63.0332	389
107.499	62.5471	386
108.053	62.385	385
109.451	62.7091	387
111.142	63.1952	390
112.273	63.3573	391
113.696	63.6813	393
113.963	63.3573	391
115.689	63.8434	394
117.132	64.1675	396
118.286	64.3295	397
118.845	64.1675	396
119.701	64.1675	396
121.166	64.4915	398
122.026	64.4915	398
122.886	64.4915	398
122.192	63.6813	393
125.546	64.9777	401
127.359	65.4638	404
127.597	65.1397	402
127.508	64.6536	399
127.727	64.3295	397
130.204	65.1397	402
130.095	64.6536	399
130.63	64.4915	398
130.829	64.1675	396
132.018	64.3295	397
134.215	64.9777	401
135.418	65.1397	402
136.626	65.3017	403
137.839	65.4638	404
139.399	65.7879	406
140.622	65.9499	407
141.502	65.9499	407
141.682	65.6258	405
140.797	64.8156	400
138.475	63.3573	391
139.32	63.3573	391
142.316	64.3295	397
144.617	64.9777	401
144.758	64.6536	399
144.891	64.3295	397
144.648	63.8434	394
145.869	64.0054	395
148.208	64.6536	399
150.939	65.4638	404
152.564	65.7879	406
153.063	65.6258	405
152.038	64.8156	400
151.756	64.3295	397
150.692	63.5193	392
153.859	64.4915	398
156.275	65.1397	402
159.098	65.9499	407
159.585	65.7879	406
158.091	64.8156	400
159.353	64.9777	401
160.22	64.9777	401
160.685	64.8156	400
160.338	64.3295	397
159.572	63.6813	393
158.381	62.8712	388
158.809	62.7091	387
160.058	62.8712	388
161.727	63.1952	390
163.403	63.5193	392
165.089	63.8434	394
165.94	63.8434	394
166.792	63.8434	394
167.218	63.6813	393
169.351	64.1675	396
173.645	65.4638	404
174.519	65.4638	404
174.524	65.1397	402
176.702	65.6258	405
175.385	64.8156	400
175.368	64.4915	398
174.9	64.0054	395
175.309	63.8434	394
175.267	63.5193	392
175.665	63.3573	391
176.51	63.3573	391
178.263	63.6813	393
180.935	64.3295	397
183.167	64.8156	400
183.112	64.4915	398
183.51	64.3295	397
184.368	64.3295	397
185.226	64.3295	397
186.553	64.4915	398
187.413	64.4915	398
187.328	64.1675	396
186.758	63.6813	393
187.13	63.5193	392
189.416	64.0054	395
191.715	64.4915	398
193.543	64.8156	400
194.408	64.8156	400
196.737	65.3017	403
199.079	65.7879	406
199.957	65.7879	406
199.845	65.4638	404
200.719	65.4638	404
203.089	65.9499	407
205.472	66.436	410
204.849	65.9499	407
204.212	65.4638	404
204.07	65.1397	402
207.488	65.9499	407
202.736	64.1675	396
201.022	63.3573	391
197.737	62.061	383
199.083	62.223	384
202.516	63.0332	389
207.017	64.1675	396
209.447	64.6536	399
206.093	63.3573	391
207.997	63.6813	393
209.909	64.0054	395
212.364	64.4915	398
215.903	65.3017	403
216.236	65.1397	402
216.565	64.9777	401
218.517	65.3017	403
220.476	65.6258	405
222.445	65.9499	407
223.325	65.9499	407
222.001	65.3017	403
221.213	64.8156	400
219.857	64.1675	396
220.156	64.0054	395
223.807	64.8156	400
226.919	65.4638	404
226.101	64.9777	401
226.967	64.9777	401
226.698	64.6536	399
226.42	64.3295	397
226.133	64.0054	395
229.86	64.8156	400
231.302	64.9777	401
231.011	64.6536	399
232.454	64.8156	400
231.569	64.3295	397
232.427	64.3295	397
226.822	62.5471	386
227.066	62.385	385
229.674	62.8712	388
229.919	62.7091	387
228.37	62.061	383
229.198	62.061	383
233.029	62.8712	388
235.074	63.1952	390
234.707	62.8712	388
236.153	63.0332	389
236.993	63.0332	389
237.834	63.0332	389
239.902	63.3573	391
241.979	63.6813	393
242.211	63.5193	392
243.058	63.5193	392
242.039	63.0332	389
242.255	62.8712	388
242.468	62.7091	387
-309.754	68.9642	420
-308.111	68.8	419
-307.939	68.9642	420
-307.031	68.9642	420
-306.852	69.1284	421
-304.488	68.8	419
-302.133	68.4716	417
-301.232	68.4716	417
-300.33	68.4716	417
-300.865	68.8	419
-304.255	69.7852	425
-306.191	70.442	429
-305.975	70.6062	430
-305.046	70.6062	430
-299.873	69.621	424
-291.905	67.979	414
-294.525	68.8	419
-292.918	68.6358	418
-293.412	68.9642	420
-292.504	68.9642	420
-291.596	68.9642	420
-285.843	67.8148	413
-284.951	67.8148	413
-282.682	67.4864	411
-280.422	67.158	409
-278.855	66.9938	408
-277.973	66.9938	408
-279.807	67.6506	412
-285.01	69.1284	421
-286.124	69.621	424
-285.88	69.7852	425
-285.632	69.9494	426
-286.048	70.2778	428
-285.122	70.2778	428
-286.853	70.9346	432
-284.596	70.6062	430
-281.027	69.9494	426
-279.449	69.7852	425
-279.186	69.9494	426
-279.571	70.2778	428
-279.948	70.6062	430
-279.019	70.6062	430
-277.442	70.442	429
-273.937	69.7852	425
-272.376	69.621	424
-270.179	69.2926	422
-269.266	69.2926	422
-268.354	69.2926	422
-261.104	67.6506	412
-260.845	67.8148	413
-259.952	67.8148	413
-259.06	67.8148	413
-260.042	68.3074	416
-261.012	68.8	419
-258.244	68.3074	416
-257.963	68.4716	417
-257.678	68.6358	418
-258.617	69.1284	421
-260.156	69.7852	425
-254.357	68.4716	417
-252.24	68.1432	415
-251.949	68.3074	416
-252.256	68.6358	418
-251.353	68.6358	418
-252.247	69.1284	421
-250.74	68.9642	420
-249.832	68.9642	420
-249.516	69.1284	421
-249.787	69.4568	423
-251.815	70.2778	428
-250.303	70.1136	427
-246.46	69.2926	422
-244.966	69.1284	421
-244.636	69.2926	422
-242.568	68.9642	420
-241.085	68.8	419
-240.179	68.8	419
-238.131	68.4716	417
-234.954	67.8148	413
-236.329	68.4716	417
-237.121	68.9642	420
-234.526	68.4716	417
-233.624	68.4716	417
-232.165	68.3074	416
-229.598	67.8148	413
-229.259	67.979	414
-228.915	68.1432	415
-228.018	68.1432	415
-226.574	67.979	414
-224.589	67.6506	412
-223.698	67.6506	412
-222.807	67.6506	412
-222.455	67.8148	413
-222.099	67.979	414
-221.204	67.979	414
-220.309	67.979	414
-219.414	67.979	414
-221.158	68.8	419
-221.304	69.1284	421
-220.917	69.2926	422
-218.441	68.8	419
-214.939	67.979	414
-214.045	67.979	414
-212.12	67.6506	412
-211.742	67.8148	413
-211.87	68.1432	415
-211.481	68.3074	416
-210.582	68.3074	416
-209.683	68.3074	416
-209.787	68.6358	418
-210.383	69.1284	421
-211.463	69.7852	425
-210.049	69.621	424
-206.173	68.6358	418
-198.885	66.5012	405
-198.01	66.5012	405
-198.108	66.8296	407
-198.682	67.3222	410
-199.243	67.8148	413
-195.468	66.8296	407
-194.589	66.8296	407
-196.089	67.6506	412
-195.198	67.6506	412
-193.364	67.3222	410
-191.539	66.9938	408
-188.32	66.1728	403
-186.519	65.8444	401
-186.115	66.0086	402
-185.707	66.1728	403
-185.294	66.337	404
-183.052	65.8444	401
-179.004	64.695	394
-179.509	65.1876	397
-182.251	66.5012	405
-184.958	67.8148	413
-185.403	68.3074	416
-185.39	68.6358	418
-182.721	67.979	414
-181.387	67.8148	413
-180.494	67.8148	413
-180.906	68.3074	416
-180.44	68.4716	417
-180.399	68.8	419
-180.35	69.1284	421
-179.014	68.9642	420
-177.258	68.6358	418
-177.198	68.9642	420
-176.29	68.9642	420
-175.382	68.9642	420
-174.059	68.8	419
-173.566	68.9642	420
-172.659	68.9642	420
-169.297	67.979	414
-166.775	67.3222	410
-163.866	66.5012	405
-161.38	65.8444	401
-160.514	65.8444	401
-161.239	66.5012	405
-161.552	66.9938	408
-162.245	67.6506	412
-161.746	67.8148	413
-161.242	67.979	414
-160.348	67.979	414
-159.067	67.8148	413
-155.877	66.8296	407
-153.474	66.1728	403
-153.738	66.6654	406
-155.12	67.6506	412
-154.603	67.8148	413
-154.455	68.1432	415
-152.818	67.8148	413
-151.189	67.4864	411
-148.107	66.5012	405
-147.958	66.8296	407
-148.524	67.4864	411
-146.917	67.158	409
-146.033	67.158	409
-144.794	66.9938	408
-143.207	66.6654	406
-141.628	66.337	404
-140.406	66.1728	403
-140.92	66.8296	407
-140.384	66.9938	408
-139.844	67.158	409
-139.639	67.4864	411
-139.426	67.8148	413
-137.192	67.158	409
-134.641	66.337	404
-132.443	65.6802	400
-132.237	66.0086	402
-131.694	66.1728	403
-130.498	66.0086	402
-127.695	65.0234	396
-128.76	66.0086	402
-129.164	66.6654	406
-129.866	67.4864	411
-129.292	67.6506	412
-128.401	67.6506	412
-126.891	67.3222	410
-125.39	66.9938	408
-124.814	67.158	409
-123.929	67.158	409
-122.744	66.9938	408
-119.473	65.6802	400
-118.608	65.6802	400
-117.449	65.516	399
-116.295	65.3518	398
-116.014	65.6802	400
-116.013	66.1728	403
-116.571	66.9938	408
-116.539	67.4864	411
-114.807	66.9938	408
-112.808	66.337	404
-110.826	65.6802	400
-109.137	65.1876	397
-108.824	65.516	399
-107.962	65.516	399
-108.441	66.337	404
-108.1	66.6654	406
-106.694	66.337	404
-104.511	65.516	399
-103.909	65.6802	400
-102.786	65.516	399
-102.179	65.6802	400
-100.808	65.3518	398
-100.701	65.8444	401
-100.083	66.0086	402
-98.9673	65.8444	401
-98.5898	66.1728	403
-97.9611	66.337	404
-97.0878	66.337	404
-96.2144	66.337	404
-95.1051	66.1728	403
-94.0001	66.0086	402
-92.8994	65.8444	401
-92.2621	66.0086	402
-91.6204	66.1728	403
-91.1996	66.5012	405
-90.3241	66.5012	405
-88.3443	65.6802	400
-88.5731	66.5012	405
-87.9142	66.6654	406
-87.0365	66.6654	406
-86.3711	66.8296	407
-85.4912	66.8296	407
-84.6114	66.8296	407
-83.7316	66.8296	407
-82.2411	66.337	404
-81.3678	66.337	404
-80.2952	66.1728	403
-78.8328	65.6802	400
-77.7732	65.516	399
-76.9106	65.516	399
-76.0481	65.516	399
-74.9972	65.3518	398
-73.7642	65.0234	396
-73.2764	65.3518	398
-72.78	65.6802	400
-72.0951	65.8444	401
-71.2282	65.8444	401
-70.3614	65.8444	401
-69.8411	66.1728	403
-68.97	66.1728	403
-67.5919	65.6802	400
-66.0599	65.0234	396
-65.5332	65.3518	398
-64.6728	65.3518	398
-63.9728	65.516	399
-63.1102	65.516	399
-61.9357	65.1876	397
-61.539	65.6802	400
-60.2193	65.1876	397
-59.0621	64.8592	395
-57.7661	64.3666	392
-57.0639	64.5308	393
-56.6435	65.0234	396
-56.2101	65.516	399
-56.0411	66.337	404
-54.6216	65.6802	400
-53.4881	65.3518	398
-52.76	65.516	399
-51.8974	65.516	399
-51.0349	65.516	399
-49.9209	65.1876	397
-49.1863	65.3518	398
-48.3259	65.3518	398
-46.9885	64.695	394
-46.0197	64.5308	393
-45.515	65.0234	396
-45.11	65.6802	400
-44.3559	65.8444	401
-43.5975	66.0086	402
-42.9411	66.337	404
-42.1719	66.5012	405
-41.1945	66.337	404
-40.1215	66.0086	402
-39.5454	66.5012	405
-38.6699	66.5012	405
-37.5145	66.0086	402
-36.9189	66.5012	405
-36.2214	66.8296	407
-35.2548	66.6654	406
-34.0384	66.0086	402
-33.2519	66.1728	403
-32.5415	66.5012	405
-31.8224	66.8296	407
-30.9425	66.8296	407
-30.1366	66.9938	408
-29.2546	66.9938	408
-28.3726	66.9938	408
-27.2211	66.337	404
-25.9565	65.3518	398
-25.0961	65.3518	398
-24.4793	66.0086	402
-23.4929	65.6802	400
-22.5716	65.516	399
-21.5459	65.0234	396
-20.6898	65.0234	396
-19.8839	65.1876	397
-19.1215	65.516	399
-18.2132	65.3518	398
-17.2657	65.0234	396
-16.4096	65.0234	396
-15.7107	65.6802	400
-14.9945	66.337	404
-14.2609	66.9938	408
-13.3134	66.6654	406
-12.3438	66.1728	403
-11.3588	65.516	399
-10.391	64.8592	395
-9.58545	65.1876	397
-8.74924	65.3518	398
-7.9087	65.516	399
-7.02851	65.3518	398
-6.15265	65.1876	397
-5.28111	65.0234	396
-4.44742	65.3518	398
-3.56904	65.0234	396
-2.69244	64.5308	393
-1.83351	64.2024	391
-0.998392	64.8592	395
-0.147075	66.0086	402
0.72373	66.1728	403
1.60677	66.6654	406
2.47219	66.337	404
3.30412	65.516	399
4.14576	65.1876	397
4.97875	64.8592	395
5.83263	64.8592	395
6.75422	65.516	399
7.67401	66.0086	402
8.60677	66.5012	405
9.48227	66.5012	405
10.281	66.0086	402
11.2333	66.5012	405
12.049	66.1728	403
12.9522	66.337	404
13.6886	65.6802	400
14.5533	65.6802	400
15.3024	65.1876	397
16.4048	66.1728	403
17.3188	66.337	404
18.1021	66.0086	402
18.688	65.0234	396
19.396	64.5308	393
20.3485	64.8592	395
21.3635	65.3518	398
22.4472	66.0086	402
22.8522	64.695	394
23.7039	64.695	394
24.6179	64.8592	395
25.7297	65.516	399
26.5256	65.3518	398
27.2484	65.0234	396
27.8915	64.5308	393
28.6679	64.3666	392
29.5153	64.3666	392
30.3627	64.3666	392
31.0509	64.0382	390
31.9757	64.2024	391
33.0728	64.695	394
34.6133	66.0086	402
35.4823	66.0086	402
36.4417	66.1728	403
37.4055	66.337	404
38.2788	66.337	404
39.1522	66.337	404
39.8274	66.0086	402
40.5951	65.8444	401
41.0484	65.1876	397
41.5899	64.695	394
42.3339	64.5308	393
42.9637	64.2024	391
43.8089	64.2024	391
44.7684	64.3666	392
45.6158	64.3666	392
46.7002	64.695	394
47.6726	64.8592	395
48.8951	65.3518	398
49.6304	65.1876	397
50.4886	65.1876	397
51.4761	65.3518	398
52.3365	65.3518	398
53.3305	65.516	399
54.4647	65.8444	401
55.6075	66.1728	403
56.4787	66.1728	403
57.0652	65.8444	401
56.9208	64.695	394
57.6259	64.5308	393
58.4754	64.5308	393
59.0231	64.2024	391
59.7152	64.0382	390
60.5583	64.0382	390
61.8737	64.5308	393
63.3616	65.1876	397
63.411	64.3666	392
64.2584	64.3666	392
65.2719	64.5308	393
66.9627	65.3518	398
68.3343	65.8444	401
68.5108	65.1876	397
68.8448	64.695	394
69.5196	64.5308	393
70.5483	64.695	394
72.3061	65.516	399
73.352	65.6802	400
74.7733	66.1728	403
74.8936	65.516	399
76.1359	65.8444	401
76.8107	65.6802	400
77.8696	65.8444	401
78.5401	65.6802	400
77.8167	64.3666	392
78.2627	64.0382	390
78.9029	63.874	389
79.7439	63.874	389
80.7919	64.0382	390
81.8443	64.2024	391
82.4781	64.0382	390
83.5348	64.2024	391
84.38	64.2024	391
85.0073	64.0382	390
85.4101	63.7098	388
86.2488	63.7098	388
86.4142	63.2172	385
87.4731	63.3814	386
89.2226	64.0382	390
90.2966	64.2024	391
91.1418	64.2024	391
92.2223	64.3666	392
93.3072	64.5308	393
94.8755	65.0234	396
95.9732	65.1876	397
96.0997	64.695	394
96.9514	64.695	394
97.3067	64.3666	392
101.409	66.5012	405
102.032	66.337	404
101.887	65.6802	400
102.238	65.3518	398
102.839	65.1876	397
104.481	65.6802	400
105.345	65.6802	400
104.882	64.8592	395
106.004	65.0234	396
106.32	64.695	394
104.18	62.8888	383
104.46	62.5604	381
105.836	62.8888	383
106.942	63.053	384
107.772	63.053	384
109.168	63.3814	386
110.857	63.874	389
111.698	63.874	389
112.539	63.874	389
113.089	63.7098	388
114.221	63.874	389
115.654	64.2024	391
117.989	65.0234	396
118.544	64.8592	395
118.492	64.3666	392
118.73	64.0382	390
119.266	63.874	389
120.725	64.2024	391
122.192	64.5308	393
124.294	65.1876	397
125.152	65.1876	397
126.645	65.516	399
127.508	65.516	399
128.048	65.3518	398
127.937	64.8592	395
128.465	64.695	394
128.66	64.3666	392
129.177	64.2024	391
130.355	64.3666	392
130.533	64.0382	390
132.387	64.5308	393
134.592	65.1876	397
136.474	65.6802	400
137.682	65.8444	401
139.24	66.1728	403
141.154	66.6654	406
142.032	66.6654	406
141.853	66.1728	403
140.246	65.0234	396
141.458	65.1876	397
143.75	65.8444	401
143.535	65.3518	398
142.944	64.695	394
141.971	63.874	389
142.445	63.7098	388
144.761	64.3666	392
147.465	65.1876	397
149.071	65.516	399
150.309	65.6802	400
150.418	65.3518	398
150.138	64.8592	395
149.845	64.3666	392
149.924	64.0382	390
150.38	63.874	389
151.998	64.2024	391
155.58	65.3518	398
154.868	64.695	394
154.534	64.2024	391
154.585	63.874	389
155.425	63.874	389
156.266	63.874	389
158.723	64.5308	393
158.76	64.2024	391
158.789	63.874	389
159.63	63.874	389
160.471	63.874	389
162.141	64.2024	391
163.82	64.5308	393
164.251	64.3666	392
164.256	64.0382	390
165.099	64.0382	390
165.942	64.0382	390
167.64	64.3666	392
170.207	65.0234	396
172.359	65.516	399
173.656	65.6802	400
173.648	65.3518	398
172.754	64.695	394
172.284	64.2024	391
173.129	64.2024	391
173.974	64.2024	391
174.82	64.2024	391
176.114	64.3666	392
176.059	64.0382	390
177.355	64.2024	391
180.024	64.8592	395
182.251	65.3518	398
182.652	65.1876	397
182.585	64.8592	395
183.439	64.8592	395
184.293	64.8592	395
185.616	65.0234	396
185.53	64.695	394
185.435	64.3666	392
184.382	63.7098	388
185.698	63.874	389
187.498	64.2024	391
188.825	64.3666	392
189.672	64.3666	392
190.52	64.3666	392
192.344	64.695	394
191.234	64.0382	390
196.017	65.3518	398
196.877	65.3518	398
197.738	65.3518	398
200.594	66.0086	402
201.964	66.1728	403
201.325	65.6802	400
201.179	65.3518	398
199.501	64.5308	393
197.802	63.7098	388
197.105	63.2172	385
196.909	62.8888	383
197.737	62.8888	383
199.602	63.2172	385
200.954	63.3814	386
202.312	63.5456	387
204.198	63.874	389
205.039	63.874	389
205.351	63.7098	388
207.784	64.2024	391
210.763	64.8592	395
210.01	64.3666	392
209.781	64.0382	390
210.084	63.874	389
213.094	64.5308	393
218.299	65.8444	401
218.073	65.516	399
216.192	64.695	394
215.942	64.3666	392
216.789	64.3666	392
216.526	64.0382	390
217.369	64.0382	390
220.45	64.695	394
222.987	65.1876	397
223.845	65.1876	397
225.835	65.516	399
224.425	64.8592	395
224.138	64.5308	393
223.843	64.2024	391
222.964	63.7098	388
223.226	63.5456	387
222.905	63.2172	385
225.481	63.7098	388
228.652	64.3666	392
226.573	63.5456	387
223.296	62.3962	380
224.707	62.5604	381
224.347	62.232	379
224.572	62.0678	378
225.985	62.232	379
226.805	62.232	379
228.225	62.3962	380
230.854	62.8888	383
234.102	63.5456	387
235.546	63.7098	388
236.384	63.7098	388
237.223	63.7098	388
238.062	63.7098	388
238.285	63.5456	387
239.121	63.5456	387
239.338	63.3814	386
237.683	62.7246	382
237.261	62.3962	380
239.962	62.8888	383
-309.754	69.8721	420
-307.376	69.5393	418
-304.273	69.0403	415
-303.376	69.0403	415
-298.105	68.0421	409
-296.494	67.8757	408
-294.888	67.7094	407
-294.73	67.8757	408
-293.849	67.8757	408
-296.557	68.7075	413
-298.528	69.373	417
-294.057	68.5412	412
-293.878	68.7075	413
-292.986	68.7075	413
-292.093	68.7075	413
-290.495	68.5412	412
-290.307	68.7075	413
-292.218	69.373	417
-289.919	69.0403	415
-289.022	69.0403	415
-286.042	68.5412	412
-280.999	67.543	406
-279.431	67.3766	405
-277.868	67.2103	404
-277.68	67.3766	405
-277.488	67.543	406
-276.61	67.543	406
-278.449	68.2085	410
-282.302	69.373	417
-283.425	69.8721	420
-282.517	69.8721	420
-284.291	70.5375	424
-286.716	71.3693	429
-285.789	71.3693	429
-285.525	71.5357	430
-281.948	70.8702	426
-277.729	70.0384	421
-276.161	69.8721	420
-277.22	70.3712	423
-278.918	71.0366	427
-278.646	71.203	428
-277.721	71.203	428
-275.502	70.8702	426
-270.714	69.8721	420
-265.952	68.8739	414
-264.416	68.7075	413
-264.8	69.0403	415
-262.631	68.7075	413
-254.133	66.7112	401
-252.635	66.5448	400
-254.288	67.2103	404
-253.414	67.2103	404
-255.667	68.0421	409
-256.651	68.5412	412
-257.002	68.8739	414
-257.344	69.2066	416
-255.829	69.0403	415
-254.932	69.0403	415
-252.198	68.5412	412
-249.478	68.0421	409
-248.593	68.0421	409
-248.315	68.2085	410
-248.636	68.5412	412
-247.745	68.5412	412
-248.053	68.8739	414
-248.352	69.2066	416
-246.263	68.8739	414
-246.553	69.2066	416
-245.654	69.2066	416
-245.343	69.373	417
-243.855	69.2066	416
-242.372	69.0403	415
-239.729	68.5412	412
-239.418	68.7075	413
-239.103	68.8739	414
-238.208	68.8739	414
-235.02	68.2085	410
-234.705	68.3748	411
-232.679	68.0421	409
-233.495	68.5412	412
-233.733	68.8739	414
-234.526	69.373	417
-233.624	69.373	417
-231.049	68.8739	414
-228.486	68.3748	411
-227.044	68.2085	410
-226.157	68.2085	410
-226.37	68.5412	412
-225.479	68.5412	412
-224.589	68.5412	412
-223.698	68.5412	412
-221.185	68.0421	409
-221.917	68.5412	412
-221.026	68.5412	412
-219.601	68.3748	411
-218.713	68.3748	411
-218.884	68.7075	413
-219.047	69.0403	415
-218.676	69.2066	416
-217.253	69.0403	415
-211.664	67.543	406
-210.786	67.543	406
-209.908	67.543	406
-210.06	67.8757	408
-209.178	67.8757	408
-208.807	68.0421	409
-209.448	68.5412	412
-205.014	67.3766	405
-203.634	67.2103	404
-202.259	67.0439	403
-199.389	66.3785	399
-199.522	66.7112	401
-199.15	66.8776	402
-199.268	67.2103	404
-198.394	67.2103	404
-197.521	67.2103	404
-196.648	67.2103	404
-196.259	67.3766	405
-194.901	67.2103	404
-194.028	67.2103	404
-193.154	67.2103	404
-192.281	67.2103	404
-190.46	66.8776	402
-188.648	66.5448	400
-187.783	66.5448	400
-185.984	66.2121	398
-184.658	66.0457	397
-185.189	66.5448	400
-185.707	67.0439	403
-184.377	66.8776	402
-181.226	66.0457	397
-177.187	64.8812	390
-174.988	64.3821	387
-178.201	65.8794	396
-183.167	68.0421	409
-185.848	69.373	417
-184.503	69.2066	416
-182.28	68.7075	413
-178.752	67.7094	407
-175.687	66.8776	402
-173.513	66.3785	399
-172.651	66.3785	399
-171.788	66.3785	399
-170.069	66.0457	397
-169.211	66.0457	397
-168.777	66.2121	398
-173.823	68.5412	412
-169.994	67.3766	405
-167.866	66.8776	402
-166.997	66.8776	402
-167.368	67.3766	405
-169.37	68.5412	412
-167.661	68.2085	410
-163.928	67.0439	403
-161.438	66.3785	399
-160.173	66.2121	398
-159.713	66.3785	399
-160.045	66.8776	402
-160.76	67.543	406
-160.67	67.8757	408
-160.963	68.3748	411
-160.464	68.5412	412
-159.573	68.5412	412
-157.527	68.0421	409
-154.728	67.2103	404
-151.569	66.2121	398
-149.194	65.5467	394
-148.343	65.5467	394
-149.363	66.3785	399
-150.361	67.2103	404
-150.598	67.7094	407
-148.247	67.0439	403
-145.547	66.2121	398
-145.05	66.3785	399
-144.91	66.7112	401
-145.121	67.2103	404
-145.676	67.8757	408
-144.439	67.7094	407
-142.854	67.3766	405
-141.978	67.3766	405
-141.103	67.3766	405
-139.881	67.2103	404
-140.04	67.7094	407
-138.818	67.543	406
-138.62	67.8757	408
-139.088	68.5412	412
-137.862	68.3748	411
-132.641	66.2121	398
-130.788	65.713	395
-130.921	66.2121	398
-130.06	66.2121	398
-128.875	66.0457	397
-127.05	65.5467	394
-125.878	65.3803	393
-125.664	65.713	395
-125.127	65.8794	396
-124.898	66.2121	398
-124.349	66.3785	399
-122.868	66.0457	397
-119.858	64.8812	390
-119.626	65.2139	392
-119.687	65.713	395
-118.833	65.713	395
-117.98	65.713	395
-117.422	65.8794	396
-116.272	65.713	395
-114.834	65.3803	393
-114.274	65.5467	394
-115.15	66.5448	400
-115.428	67.2103	404
-114.271	67.0439	403
-112.556	66.5448	400
-112.529	67.0439	403
-111.103	66.7112	401
-109.137	66.0457	397
-108.551	66.2121	398
-108.232	66.5448	400
-107.367	66.5448	400
-106.503	66.5448	400
-105.374	66.3785	399
-101.63	64.5485	388
-102.61	65.713	395
-102.529	66.2121	398
-101.924	66.3785	399
-100.808	66.2121	398
-100.199	66.3785	399
-99.3363	66.3785	399
-98.4737	66.3785	399
-97.6112	66.3785	399
-97.2337	66.7112	401
-96.3668	66.7112	401
-95.2618	66.5448	400
-93.9251	66.2121	398
-93.2986	66.3785	399
-92.2044	66.2121	398
-90.6555	65.713	395
-89.3469	65.3803	393
-88.9478	65.713	395
-88.0939	65.713	395
-87.0191	65.5467	394
-85.9487	65.3803	393
-85.7488	65.8794	396
-85.7503	66.5448	400
-84.4611	66.2121	398
-82.3405	65.2139	392
-80.8694	64.7148	389
-81.8801	66.2121	398
-81.834	66.8776	402
-80.7635	66.7112	401
-79.4982	66.3785	399
-78.0444	65.8794	396
-76.6036	65.3803	393
-76.1396	65.713	395
-75.4763	65.8794	396
-74.055	65.3803	393
-72.8329	65.0476	391
-71.9876	65.0476	391
-71.6883	65.5467	394
-71.0163	65.713	395
-70.1625	65.713	395
-69.6595	66.0457	397
-69.1479	66.3785	399
-68.4565	66.5448	400
-66.9159	65.8794	396
-65.3926	65.2139	392
-64.7099	65.3803	393
-63.8603	65.3803	393
-62.3694	64.7148	389
-61.054	64.2158	386
-60.3756	64.3821	387
-59.2313	64.0494	385
-58.3991	64.0494	385
-57.8659	64.3821	387
-57.6187	65.0476	391
-57.2091	65.5467	394
-56.5004	65.713	395
-55.7874	65.8794	396
-54.5152	65.3803	393
-53.6657	65.3803	393
-52.6817	65.2139	392
-51.9666	65.3803	393
-51.117	65.3803	393
-49.7558	64.7148	389
-48.4119	64.0494	385
-47.8269	64.3821	387
-47.7188	65.3803	393
-46.75	65.2139	392
-45.7855	65.0476	391
-45.1701	65.3803	393
-44.6589	65.8794	396
-43.9135	66.0457	397
-43.3806	66.5448	400
-42.6222	66.7112	401
-41.6513	66.5448	400
-40.2768	65.713	395
-39.3231	65.5467	394
-38.4714	65.5467	394
-38.0016	66.2121	398
-37.2345	66.3785	399
-36.6455	66.8776	402
-35.7765	66.8776	402
-34.9943	67.0439	403
-33.6997	66.2121	398
-32.0143	64.5485	388
-31.0952	64.3821	387
-30.1804	64.2158	386
-29.5741	64.7148	389
-29.1025	65.5467	394
-28.5376	66.2121	398
-27.6772	66.2121	398
-26.7495	66.0457	397
-26.0217	66.3785	399
-25.3483	66.8776	402
-24.4184	66.7112	401
-23.3754	66.2121	398
-22.4019	65.8794	396
-21.437	65.5467	394
-20.6376	65.713	395
-19.7837	65.713	395
-18.9777	65.8794	396
-18.0759	65.713	395
-17.1349	65.3803	393
-16.2853	65.3803	393
-15.5536	65.8794	396
-14.8831	66.7112	401
-14.1211	67.2103	404
-12.9199	65.5467	394
-11.8231	64.2158	386
-11.0741	64.7148	389
-10.2858	65.0476	391
-9.51302	65.5467	394
-8.77122	66.3785	399
-7.88887	66.2121	398
-7.01085	66.0457	397
-6.10616	65.5467	394
-5.21443	65.0476	391
-4.34685	64.7148	389
-3.48792	64.3821	387
-2.63764	64.0494	385
-1.79131	63.5503	382
-0.973116	64.0494	385
-0.141587	64.3821	387
0.70218	65.0476	391
1.55533	65.3803	393
2.41712	65.713	395
3.24615	65.2139	392
4.10399	65.3803	393
4.94094	65.2139	392
5.8031	65.3803	393
6.6865	65.713	395
7.55947	65.8794	396
8.39426	65.713	395
9.20131	65.3803	393
10.0509	65.3803	393
10.8449	65.0476	391
11.7799	65.5467	394
12.5675	65.2139	392
13.3806	65.0476	391
14.2259	65.0476	391
15.0711	65.0476	391
16.0792	65.713	395
17.1474	66.5448	400
18.0571	66.7112	401
18.7824	66.2121	398
19.6921	66.3785	399
20.3485	65.713	395
21.0414	65.2139	392
21.7771	64.8812	390
22.4462	64.3821	387
23.2828	64.3821	387
24.3063	64.8812	390
25.4073	65.5467	394
26.459	66.0457	397
26.9731	65.2139	392
27.6076	64.7148	389
28.3754	64.5485	388
29.2894	64.7148	389
29.9754	64.3821	387
30.7324	64.2158	386
31.7304	64.5485	388
32.737	64.8812	390
33.7523	65.2139	392
34.6879	65.3803	393
35.7183	65.713	395
36.6648	65.8794	396
37.7103	66.2121	398
38.4738	66.0457	397
39.0348	65.5467	394
39.684	65.2139	392
40.3246	64.8812	390
40.851	64.3821	387
41.4722	64.0494	385
42.3044	64.0494	385
43.4728	64.5485	388
44.54	64.8812	390
45.383	64.8812	390
46.7002	65.5467	394
47.5519	65.5467	394
48.0351	65.0476	391
48.1302	64.0494	385
49.2169	64.3821	387
50.4414	64.8812	390
51.5475	65.2139	392
52.6622	65.5467	394
53.7856	65.8794	396
54.9176	66.2121	398
55.3575	65.713	395
55.6422	65.0476	391
55.6206	64.0494	385
56.8927	64.5485	388
58.3266	65.2139	392
58.8721	64.8812	390
59.2559	64.3821	387
60.0924	64.3821	387
60.2993	63.7167	383
61.606	64.2158	386
62.4404	64.2158	386
63.6027	64.5485	388
64.7736	64.8812	390
65.7849	65.0476	391
67.823	66.2121	398
66.7851	64.3821	387
67.2722	64.0494	385
68.2814	64.2158	386
69.4739	64.5485	388
70.1314	64.3821	387
72.4351	65.713	395
74.2167	66.5448	400
74.8936	66.3785	399
74.617	65.3803	393
75.4665	65.3803	393
76.5103	65.5467	394
77.1656	65.3803	393
77.0226	64.5485	388
77.8614	64.5485	388
77.8888	63.883	384
77.2839	62.7185	377
78.5132	63.0512	379
80.1697	63.7167	383
81.2092	63.883	384
83.3211	64.8812	390
83.7326	64.5485	388
84.5713	64.5485	388
85.4101	64.5485	388
85.8042	64.2158	386
86.4142	64.0494	385
87.0199	63.883	384
87.6212	63.7167	383
88.911	64.0494	385
89.9763	64.2158	386
91.2813	64.5485	388
92.12	64.5485	388
93.438	64.8812	390
94.281	64.8812	390
93.9045	64.0494	385
93.9986	63.5503	382
94.8244	63.5503	382
97.1525	64.5485	388
97.9913	64.5485	388
101.122	66.0457	397
101.981	66.0457	397
102.839	66.0457	397
101.869	64.8812	390
102.975	65.0476	391
104.086	65.2139	392
104.13	64.7148	389
103.082	63.5503	382
103.092	63.0512	379
103.911	63.0512	379
105.283	63.3839	381
107.221	64.0494	385
108.053	64.0494	385
107.754	63.3839	381
109.433	63.883	384
110.55	64.0494	385
111.382	64.0494	385
112.797	64.3821	387
113.634	64.3821	387
115.654	65.0476	391
116.797	65.2139	392
117.644	65.2139	392
117.282	64.5485	388
117.817	64.3821	387
118.96	64.5485	388
120.107	64.7148	389
120.637	64.5485	388
121.789	64.7148	389
123.261	65.0476	391
124.423	65.2139	392
125.59	65.3803	393
126.761	65.5467	394
126.318	64.8812	390
126.835	64.7148	389
127.347	64.5485	388
127.195	64.0494	385
128.027	64.0494	385
128.859	64.0494	385
130.029	64.2158	386
133.236	65.3803	393
134.427	65.5467	394
133.219	64.5485	388
135.785	65.3803	393
139.763	66.8776	402
140.982	67.0439	403
139.389	65.8794	396
138.829	65.2139	392
140.745	65.713	395
141.958	65.8794	396
142.453	65.713	395
142.218	65.2139	392
141.606	64.5485	388
142.445	64.5485	388
144.022	64.8812	390
145.608	65.2139	392
146.829	65.3803	393
148.43	65.713	395
148.15	65.2139	392
148.618	65.0476	391
149.463	65.0476	391
150.308	65.0476	391
151.54	65.2139	392
150.055	64.2158	386
150.889	64.2158	386
152.117	64.3821	387
154.929	65.2139	392
154.585	64.7148	389
153.827	64.0494	385
153.856	63.7167	383
155.492	64.0494	385
156.324	64.0494	385
158.381	64.5485	388
159.63	64.7148	389
160.471	64.7148	389
162.556	65.2139	392
163.403	65.2139	392
163.832	65.0476	391
161.729	63.883	384
162.559	63.883	384
164.24	64.2158	386
166.357	64.7148	389
167.198	64.7148	389
167.607	64.5485	388
168.446	64.5485	388
170.157	64.8812	390
171.439	65.0476	391
170.081	64.2158	386
170.915	64.2158	386
172.64	64.5485	388
174.82	65.0476	391
175.665	65.0476	391
176.059	64.8812	390
176.448	64.7148	389
176.378	64.3821	387
174.467	63.3839	381
175.75	63.5503	382
180.274	64.8812	390
180.188	64.5485	388
180.56	64.3821	387
181.866	64.5485	388
182.705	64.5485	388
183.543	64.5485	388
183.907	64.3821	387
185.221	64.5485	388
186.06	64.5485	388
185.935	64.2158	386
186.769	64.2158	386
187.604	64.2158	386
187.95	64.0494	385
189.273	64.2158	386
189.614	64.0494	385
189.457	63.7167	383
190.285	63.7167	383
192.61	64.2158	386
196.953	65.3803	393
197.802	65.3803	393
198.146	65.2139	392
197.978	64.8812	390
197.292	64.3821	387
196.593	63.883	384
196.395	63.5503	382
198.253	63.883	384
198.565	63.7167	383
200.434	64.0494	385
201.789	64.2158	386
203.148	64.3821	387
202.931	64.0494	385
205.88	64.7148	389
206.721	64.7148	389
206.495	64.3821	387
206.795	64.2158	386
206.554	63.883	384
206.304	63.5503	382
209.299	64.2158	386
212.311	64.8812	390
212.061	64.5485	388
213.997	64.8812	390
211.535	63.883	384
210.706	63.3839	381
211.529	63.3839	381
216.254	64.5485	388
218.772	65.0476	391
220.74	65.3803	393
221.59	65.3803	393
222.439	65.3803	393
221.584	64.8812	390
221.857	64.7148	389
222.126	64.5485	388
221.815	64.2158	386
222.073	64.0494	385
221.747	63.7167	383
219.669	62.8849	378
219.32	62.5521	376
220.133	62.5521	376
220.945	62.5521	376
222.348	62.7185	377
222.571	62.5521	376
223.384	62.5521	376
224.197	62.5521	376
226.206	62.8849	378
228.825	63.3839	381
230.854	63.7167	383
232.892	64.0494	385
234.331	64.2158	386
235.166	64.2158	386
236	64.2158	386
235.607	63.883	384
236.438	63.883	384
237.268	63.883	384
238.098	63.883	384
237.061	63.3839	381
236.636	63.0512	379
237.455	63.0512	379
-306.804	70.1058	416
-305.17	69.9373	415
-299.874	68.9261	409
-298.989	68.9261	409
-295.919	68.4206	406
-295.041	68.4206	406
-292.714	68.0835	404
-290.396	67.7465	402
-289.527	67.7465	402
-290.094	68.0835	404
-290.653	68.4206	406
-292.63	69.0947	410
-291.744	69.0947	410
-291.567	69.2632	411
-290.678	69.2632	411
-291.905	69.7688	414
-291.01	69.7688	414
-286.611	68.9261	409
-281.536	67.915	403
-276.486	66.9039	397
-275.628	66.9039	397
-274.077	66.7353	396
-274.601	67.0724	398
-273.741	67.0724	398
-275.623	67.7465	402
-277.488	68.4206	406
-276.61	68.4206	406
-277.77	68.9261	409
-278.917	69.4317	412
-278.701	69.6002	413
-280.499	70.2743	417
-282.95	71.117	422
-285.379	71.9596	427
-284.456	71.9596	427
-284.197	72.1281	428
-279.301	71.117	422
-273.771	69.9373	415
-272.216	69.7688	414
-273.287	70.2743	417
-274.999	70.9484	421
-273.438	70.7799	420
-271.881	70.6114	419
-270.975	70.6114	419
-264.913	69.2632	411
-259.528	68.0835	404
-256.734	67.578	401
-255.229	67.4094	400
