13.374	64.1748	297
13.9216	63.7426	295
14.51	63.5266	294
15.3	64.1748	297
16.1031	64.823	300
16.8075	65.0391	301
17.3421	64.6069	299
17.9283	64.3909	298
18.4479	63.9587	296
19.5391	65.4713	303
20.0608	65.0391	301
20.6427	64.823	300
21.0073	63.9587	296
21.5741	63.7426	295
22.513	64.6069	299
23.2368	64.823	300
23.9649	65.0391	301
24.452	64.6069	299
24.8465	63.9587	296
25.6586	64.3909	298
26.3028	64.3909	298
26.947	64.3909	298
27.3134	63.7426	295
28.0459	63.9587	296
28.6857	63.9587	296
29.2265	63.7426	295
30.4717	65.0391	301
31.1223	65.0391	301
31.773	65.0391	301
32.1005	64.3909	298
32.7447	64.3909	298
33.3889	64.3909	298
34.6041	65.4713	303
35.3755	65.6873	304
35.7956	65.2552	302
36.0864	64.6069	299
36.487	64.1748	297
37.004	63.9587	296
37.6439	63.9587	296
38.0251	63.5266	294
38.5291	63.3105	293
39.8308	64.3909	298
40.6108	64.6069	299
41.9471	65.6873	304
42.6043	65.6873	304
43.1191	65.4713	303
43.9186	65.6873	304
43.1094	63.5266	294
43.8938	63.7426	295
44.5315	63.7426	295
45.3223	63.9587	296
45.8069	63.7426	295
46.7595	64.1748	297
47.0823	63.7426	295
47.72	63.7426	295
47.5381	62.6623	290
48.9954	63.7426	295
49.6331	63.7426	295
50.7821	64.3909	298
51.0811	63.9587	296
52.0704	64.3909	298
53.0684	64.823	300
53.7169	64.823	300
54.1842	64.6069	299
54.6472	64.3909	298
55.4769	64.6069	299
55.9356	64.3909	298
56.3899	64.1748	297
57.224	64.3909	298
57.8682	64.3909	298
57.9233	63.7426	295
57.767	62.8783	291
58.1954	62.6623	290
59.2279	63.0944	292
60.4741	63.7426	295
61.1118	63.7426	295
61.9589	63.9587	296
63.6561	65.0391	301
63.8795	64.6069	299
63.6627	63.7426	295
63.6465	63.0944	292
63.8374	62.6623	290
65.7981	63.9587	296
67.1113	64.6069	299
67.531	64.3909	298
68.404	64.6069	299
67.6647	63.3105	293
68.2981	63.3105	293
68.9315	63.3105	293
69.3275	63.0944	292
70.1983	63.3105	293
71.5569	63.9587	296
71.465	63.3105	293
72.0984	63.3105	293
73.2282	63.7426	295
73.866	63.7426	295
74.5037	63.7426	295
74.6319	63.3105	293
74.7516	62.8783	291
75.3806	62.8783	291
76.0097	62.8783	291
76.9021	63.0944	292
77.5333	63.0944	292
77.8969	62.8783	291
78.2561	62.6623	290
78.0669	62.014	287
79.2357	62.4462	289
80.6894	63.0944	292
81.8776	63.5266	294
82.7938	63.7426	295
82.0174	62.6623	290
84.9242	64.3909	298
85.5684	64.3909	298
85.9233	64.1748	297
85.6909	63.5266	294
86.0328	63.3105	293
86.962	63.5266	294
87.0016	63.0944	292
88.2331	63.5266	294
89.1709	63.7426	295
90.7219	64.3909	298
91.0595	64.1748	297
91.084	63.7426	295
90.478	62.8783	291
90.4809	62.4462	289
91.4209	62.6623	290
92.3652	62.8783	291
93.953	63.5266	294
95.232	63.9587	296
95.548	63.7426	295
94.2293	62.4462	289
93.8694	61.798	286
95.8092	62.6623	290
97.4337	63.3105	293
99.7406	64.3909	298
100.385	64.3909	298
100.351	63.9587	296
100.991	63.9587	296
101.631	63.9587	296
101.58	63.5266	294
101.52	63.0944	292
101.451	62.6623	290
102.078	62.6623	290
102.705	62.6623	290
102.263	62.014	287
102.525	61.798	286
103.504	62.014	287
104.85	62.4462	289
105.84	62.6623	290
105.732	62.2301	288
106.724	62.4462	289
107.72	62.6623	290
107.974	62.4462	289
108.598	62.4462	289
108.845	62.2301	288
107.947	61.3658	284
108.561	61.3658	284
109.175	61.3658	284
110.562	61.798	286
112.347	62.4462	289
113.753	62.8783	291
115.168	63.3105	293
114.221	62.4462	289
115.243	62.6623	290
116.269	62.8783	291
116.095	62.4462	289
116.72	62.4462	289
115.314	61.3658	284
117.153	62.014	287
115.722	60.9336	282
119.631	62.6623	290
120.673	62.8783	291
121.302	62.8783	291
121.931	62.8783	291
121.718	62.4462	289
120.649	61.5819	285
120.84	61.3658	284
121.454	61.3658	284
122.497	61.5819	285
123.113	61.5819	285
124.598	62.014	287
126.091	62.4462	289
126.716	62.4462	289
127.781	62.6623	290
128.851	62.8783	291
130.37	63.3105	293
130.556	63.0944	292
131.636	63.3105	293
132.27	63.3105	293
131.542	62.6623	290
128.979	61.1497	283
130.964	61.798	286
131.123	61.5819	285
132.663	62.014	287
133.284	62.014	287
133.904	62.014	287
134.524	62.014	287
136.087	62.4462	289
136.711	62.4462	289
138.287	62.8783	291
140.348	63.5266	294
140.504	63.3105	293
139.692	62.6623	290
139.351	62.2301	288
140.46	62.4462	289
141.085	62.4462	289
140.729	62.014	287
140.856	61.798	286
141.475	61.798	286
141.596	61.5819	285
142.212	61.5819	285
142.327	61.3658	284
143.948	61.798	286
144.061	61.5819	285
145.692	62.014	287
147.842	62.6623	290
148.469	62.6623	290
149.095	62.6623	290
149.206	62.4462	289
150.868	62.8783	291
151.497	62.8783	291
152.126	62.8783	291
153.28	63.0944	292
154.965	63.5266	294
155.601	63.5266	294
156.236	63.5266	294
153.67	62.2301	288
154.293	62.2301	288
154.916	62.2301	288
156.078	62.4462	289
155.618	62.014	287
154.606	61.3658	284
155.766	61.5819	285
155.834	61.3658	284
156.447	61.3658	284
159.274	62.2301	288
161.007	62.6623	290
162.748	63.0944	292
163.939	63.3105	293
162.887	62.6623	290
163.514	62.6623	290
164.141	62.6623	290
164.768	62.6623	290
165.395	62.6623	290
164.877	62.2301	288
165.499	62.2301	288
166.122	62.2301	288
166.165	62.014	287
166.786	62.014	287
168.573	62.4462	289
168.027	62.014	287
168.059	61.798	286
168.678	61.798	286
167.52	61.1497	283
168.132	61.1497	283
169.936	61.5819	285
172.348	62.2301	288
173.571	62.4462	289
174.798	62.6623	290
175.425	62.6623	290
172.41	61.3658	284
174.242	61.798	286
175.472	62.014	287
176.706	62.2301	288
178.56	62.6623	290
179.804	62.8783	291
180.433	62.8783	291
180.44	62.6623	290
181.067	62.6623	290
180.441	62.2301	288
182.95	62.8783	291
-226.416	66.9991	307
-224.281	66.5627	305
-222.156	66.1262	303
-221.501	66.1262	303
-219.388	65.6897	301
-222.371	66.7809	306
-223.883	67.4356	309
-223.937	67.6539	310
-223.267	67.6539	310
-223.315	67.8721	311
-222.643	67.8721	311
-220.543	67.4356	309
-219.164	67.2174	308
-217.079	66.7809	306
-216.417	66.7809	306
-215.051	66.5627	305
-213.689	66.3444	304
-213.732	66.5627	305
-217.265	67.8721	311
-216.592	67.8721	311
-215.226	67.6539	310
-214.556	67.6539	310
-213.885	67.6539	310
-213.903	67.8721	311
-215.288	68.5268	314
-217.343	69.3998	318
-216.655	69.3998	318
-217.326	69.8362	320
-212.573	68.5268	314
-210.544	68.0903	312
-211.888	68.745	315
-213.218	69.3998	318
-212.531	69.3998	318
-211.843	69.3998	318
-208.5	68.5268	314
-205.174	67.6539	310
-204.504	67.6539	310
-203.833	67.6539	310
-203.163	67.6539	310
-203.8	68.0903	312
-201.823	67.6539	310
-199.206	66.9991	307
-197.896	66.7809	306
-197.234	66.7809	306
-196.573	66.7809	306
-195.271	66.5627	305
-194.612	66.5627	305
-193.953	66.5627	305
-192.659	66.3444	304
-192.002	66.3444	304
-191.345	66.3444	304
-191.315	66.5627	305
-188.781	65.908	302
-188.751	66.1262	303
-188.096	66.1262	303
-189.297	66.7809	306
-186.786	66.1262	303
-186.131	66.1262	303
-186.7	66.5627	305
-186.041	66.5627	305
-185.381	66.5627	305
-185.933	66.9991	307
-182.856	66.1262	303
-182.802	66.3444	304
-183.343	66.7809	306
-183.876	67.2174	308
-181.425	66.5627	305
-179.581	66.1262	303
-178.335	65.908	302
-178.271	66.1262	303
-177.616	66.1262	303
-176.377	65.908	302
-175.724	65.908	302
-175.651	66.1262	303
-173.841	65.6897	301
-173.765	65.908	302
-173.686	66.1262	303
-174.173	66.5627	305
-174.651	66.9991	307
-172.854	66.5627	305
-171.066	66.1262	303
-171.536	66.5627	305
-173.678	67.6539	310
-174.682	68.3086	313
-171.781	67.4356	309
-170.56	67.2174	308
-168.791	66.7809	306
-166.481	66.1262	303
-165.278	65.908	302
-165.716	66.3444	304
-166.145	66.7809	306
-163.861	66.1262	303
-161.59	65.4715	300
-157.186	63.9438	293
-157.621	64.3803	295
-159.112	65.2532	299
-159.526	65.6897	301
-158.875	65.6897	301
-158.224	65.6897	301
-159.144	66.3444	304
-160.572	67.2174	308
-158.868	66.7809	306
-156.656	66.1262	303
-155.486	65.908	302
-153.808	65.4715	300
-154.18	65.908	302
-153.527	65.908	302
-152.875	65.908	302
-153.23	66.3444	304
-153.075	66.5627	305
-152.415	66.5627	305
-150.761	66.1262	303
-149.115	65.6897	301
-148.464	65.6897	301
-148.305	65.908	302
-149.608	66.7809	306
-149.433	66.9991	307
-149.738	67.4356	309
-148.588	67.2174	308
-147.442	66.9991	307
-145.822	66.5627	305
-145.163	66.5627	305
-144.03	66.3444	304
-142.901	66.1262	303
-138.96	64.5985	296
-137.852	64.3803	295
-137.68	64.5985	296
-137.04	64.5985	296
-135.939	64.3803	295
-135.302	64.3803	295
-136.033	65.035	298
-135.389	65.035	298
-135.197	65.2532	299
-134.551	65.2532	299
-134.8	65.6897	301
-135.486	66.3444	304
-134.386	66.1262	303
-134.172	66.3444	304
-133.515	66.3444	304
-132.421	66.1262	303
-130.461	65.4715	300
-129.38	65.2532	299
-128.303	65.035	298
-127.659	65.035	298
-127.015	65.035	298
-125.098	64.3803	295
-124.882	64.5985	296
-125.502	65.2532	299
-124.02	64.8168	297
-124.209	65.2532	299
-123.563	65.2532	299
-121.272	64.3803	295
-120.225	64.162	294
-120.403	64.5985	296
-119.764	64.5985	296
-119.526	64.8168	297
-116.883	63.7256	292
-115.853	63.5073	291
-115.224	63.5073	291
-115.383	63.9438	293
-118.274	65.908	302
-119.179	66.7809	306
-118.518	66.7809	306
-116.701	66.1262	303
-113.365	64.5985	296
-111.963	64.162	294
-111.328	64.162	294
-111.069	64.3803	295
-111.554	65.035	298
-110.91	65.035	298
-111.006	65.4715	300
-110.725	65.6897	301
-110.074	65.6897	301
-109.424	65.6897	301
-108.05	65.2532	299
-108.122	65.6897	301
-106.044	64.8168	297
-105.401	64.8168	297
-105.465	65.2532	299
-105.52	65.6897	301
-105.914	66.3444	304
-104.911	66.1262	303
-105.632	66.9991	307
-103.943	66.3444	304
-102.946	66.1262	303
-100.603	65.035	298
-99.9586	65.035	298
-99.3144	65.035	298
-98.6703	65.035	298
-98.355	65.2532	299
-97.7087	65.2532	299
-97.0623	65.2532	299
-95.4486	64.5985	296
-94.8087	64.5985	296
-94.8051	65.035	298
-94.4769	65.2532	299
-93.2029	64.8168	297
-92.5609	64.8168	297
-92.5378	65.2532	299
-91.8915	65.2532	299
-90.6348	64.8168	297
-88.4777	63.7256	292
-87.5457	63.5073	291
-87.514	63.9438	293
-88.6597	65.2532	299
-87.4247	64.8168	297
-86.7826	64.8168	297
-85.8506	64.5985	296
-86.6501	65.6897	301
-85.7137	65.4715	300
-85.3487	65.6897	301
-84.4166	65.4715	300
-84.0474	65.6897	301
-83.1196	65.4715	300
-82.746	65.6897	301
-81.5498	65.2532	299
-80.6329	65.035	298
-79.7203	64.8168	297
-78.5458	64.3803	295
-76.8517	63.5073	291
-76.7465	63.9438	293
-76.8924	64.5985	296
-77.0254	65.2532	299
-76.1236	65.035	298
-76.4925	65.908	302
-75.8397	65.908	302
-73.942	64.8168	297
-73.3	64.8168	297
-72.9026	65.035	298
-72.9859	65.6897	301
-72.0949	65.4715	300
-70.0174	64.162	294
-69.8539	64.5985	296
-69.6817	65.035	298
-68.8058	64.8168	297
-68.6228	65.2532	299
-68.4311	65.6897	301
-67.3301	65.2532	299
-66.2377	64.8168	297
-65.5956	64.8168	297
-63.8601	63.7256	292
-63.0124	63.5073	291
-63.0264	64.162	294
-62.3909	64.162	294
-62.1755	64.5985	296
-62.1593	65.2532	299
-61.7186	65.4715	300
-61.2737	65.6897	301
-60.4216	65.4715	300
-59.3746	65.035	298
-58.1392	64.3803	295
-56.9167	63.7256	292
-56.8638	64.3803	295
-56.0354	64.162	294
-55.9652	64.8168	297
-55.3232	64.8168	297
-55.0494	65.2532	299
-55.3128	66.3444	304
-53.7567	65.2532	299
-52.7551	64.8168	297
-51.7621	64.3803	295
-50.7778	63.9438	293
-50.1444	63.9438	293
-49.0041	63.2891	290
-48.3772	63.2891	290
-48.7382	64.5985	296
-48.2609	64.8168	297
-47.6188	64.8168	297
-46.8186	64.5985	296
-46.3348	64.8168	297
-45.5389	64.5985	296
-45.2024	65.035	298
-44.4087	64.8168	297
-43.4719	64.3803	295
-42.5438	63.9438	293
-42.0535	64.162	294
-42.1223	65.2532	299
-41.1985	64.8168	297
-39.8737	63.7256	292
-39.2425	63.7256	292
-38.6113	63.7256	292
-37.9801	63.7256	292
-38.5	65.6897	301
-37.4721	65.035	298
-36.9515	65.2532	299
-36.548	65.6897	301
-36.0166	65.908	302
-35.0124	65.2532	299
-34.481	65.4715	300
-33.607	65.035	298
-33.184	65.4715	300
-32.5355	65.4715	300
-31.9933	65.6897	301
-31.3426	65.6897	301
-30.0801	64.3803	295
-29.3426	64.162	294
-28.5118	63.7256	292
-27.8805	63.7256	292
-27.0627	63.2891	290
-26.6181	63.7256	292
-26.2539	64.3803	295
-25.8767	65.035	298
-25.2325	65.035	298
-24.5058	64.8168	297
-23.7834	64.5985	296
-22.909	63.9438	293
-22.5797	64.8168	297
-21.8638	64.5985	296
-21.1522	64.3803	295
-20.5841	64.5985	296
-19.9442	64.5985	296
-19.3695	64.8168	297
-18.3492	63.5073	291
-17.9028	64.162	294
-17.6196	65.4715	300
-17.0277	65.6897	301
-16.2682	65.2532	299
-15.5174	64.8168	297
-14.6249	63.7256	292
-13.9458	63.5073	291
-13.3625	63.7256	292
-12.9056	64.5985	296
-12.3072	64.8168	297
-11.6652	64.8168	297
-11.0603	65.035	298
-10.2763	64.162	294
-9.7391	64.8168	297
-9.09707	64.8168	297
-8.36964	64.162	294
-7.70779	63.9438	293
-7.0744	63.9438	293
-6.48499	64.3803	295
-5.88692	64.8168	297
-5.26255	65.035	298
-4.61836	65.035	298
-3.93416	64.3803	295
-3.25176	63.5073	291
-2.61369	63.2891	290
-1.97994	63.0709	289
-1.36927	63.7256	292
-0.745634	64.3803	295
-0.10866	64.8168	297
0.533369	64.8168	297
1.16748	64.3803	295
1.79907	64.162	294
2.42633	63.9438	293
3.07016	64.162	294
3.7057	64.162	294
4.35601	64.3803	295
5.02757	64.8168	297
5.63142	64.3803	295
6.26913	64.3803	295
6.88342	64.162	294
7.54454	64.3803	295
8.26546	65.035	298
8.90965	65.035	298
9.45766	64.3803	295
10.0611	64.162	294
10.7695	64.5985	296
11.3322	64.162	294
12.0492	64.5985	296
12.6891	64.5985	296
13.1938	63.9438	293
13.78	63.7256	292
14.4606	63.9438	293
15.1455	64.162	294
15.8347	64.3803	295
16.6399	65.035	298
17.1681	64.5985	296
17.808	64.5985	296
18.3232	64.162	294
18.9588	64.162	294
19.461	63.7256	292
20.0922	63.7256	292
20.7235	63.7256	292
21.3547	63.7256	292
21.9106	63.5073	291
22.3073	62.8526	288
22.9299	62.8526	288
23.6342	63.0709	289
24.7626	64.3803	295
25.3142	64.162	294
26.1263	64.5985	296
26.7661	64.5985	296
27.2208	64.162	294
27.9511	64.3803	295
28.4919	64.162	294
29.1275	64.162	294
29.763	64.162	294
30.3986	64.162	294
31.1397	64.3803	295
31.6696	64.162	294
31.9755	63.5073	291
32.3805	63.0709	289
33.3479	63.7256	292
34.5609	64.8168	297
35.44	65.2532	299
35.845	64.8168	297
36.3642	64.5985	296
36.879	64.3803	295
37.5167	64.3803	295
38.1544	64.3803	295
39.0551	64.8168	297
39.8308	65.035	298
40.2034	64.5985	296
40.9812	64.8168	297
41.4831	64.5985	296
41.696	63.9438	293
42.185	63.7256	292
42.9628	63.9438	293
43.2986	63.5073	291
43.6258	63.0709	289
44.5567	63.5073	291
45.4963	63.9438	293
46.1297	63.9438	293
46.7631	63.9438	293
46.5877	62.8526	288
47.702	63.5073	291
48.4972	63.7256	292
49.2966	63.9438	293
49.93	63.9438	293
50.9085	64.3803	295
52.0704	65.035	298
53.0684	65.4715	300
53.7169	65.4715	300
54.003	65.035	298
54.4638	64.8168	297
54.7348	64.3803	295
54.8094	63.7256	292
54.871	63.0709	289
55.8798	63.5073	291
56.5089	63.5073	291
56.7452	63.0709	289
57.3699	63.0709	289
57.9947	63.0709	289
58.8223	63.2891	290
59.6541	63.5073	291
61.1118	64.3803	295
62.5868	65.2532	299
62.5987	64.5985	296
63.025	64.3803	295
63.6627	64.3803	295
64.0824	64.162	294
63.6173	63.0709	289
64.4643	63.2891	290
65.7646	63.9438	293
67.0778	64.5985	296
67.4889	64.3803	295
67.8957	64.162	294
68.5312	64.162	294
69.402	64.3803	295
70.0397	64.3803	295
70.917	64.5985	296
71.3151	64.3803	295
71.7089	64.162	294
72.5905	64.3803	295
73.2282	64.3803	295
73.866	64.3803	295
74.2511	64.162	294
74.8867	64.162	294
74.7516	63.5073	291
75.1216	63.2891	290
75.4873	63.0709	289
76.112	63.0709	289
75.9402	62.4161	286
76.2907	62.1979	285
77.4465	62.6344	287
78.0669	62.6344	287
78.9615	62.8526	288
79.5841	62.8526	288
80.4852	63.0709	289
81.6712	63.5073	291
83.4315	64.3803	295
84.3542	64.5985	296
84.1327	63.9438	293
84.4768	63.7256	292
84.8165	63.5073	291
85.7392	63.7256	292
86.3704	63.7256	292
87.2996	63.9438	293
87.6329	63.7256	292
88.2641	63.7256	292
89.1997	63.9438	293
90.1397	64.162	294
90.4665	63.9438	293
88.3016	61.9797	284
87.6632	61.1067	280
91.1057	63.0709	289
92.0478	63.2891	290
92.9943	63.5073	291
93.3016	63.2891	290
93.9285	63.2891	290
93.5772	62.6344	287
93.5412	62.1979	285
95.4788	63.0709	289
96.7686	63.5073	291
97.7324	63.7256	292
99.3742	64.3803	295
99.3339	63.9438	293
100.308	64.162	294
100.601	63.9438	293
100.543	63.5073	291
100.824	63.2891	290
101.101	63.0709	289
101.374	62.8526	288
100.58	61.9797	284
100.125	61.325	281
100.733	61.325	281
103.504	62.6344	287
104.85	63.0709	289
104.745	62.6344	287
105.732	62.8526	288
106.355	62.8526	288
107.349	63.0709	289
107.226	62.6344	287
107.471	62.4161	286
107.711	62.1979	285
107.947	61.9797	284
108.561	61.9797	284
109.56	62.1979	285
110.562	62.4161	286
111.958	62.8526	288
112.971	63.0709	289
113.989	63.2891	290
113.826	62.8526	288
114.448	62.8526	288
115.071	62.8526	288
115.292	62.6344	287
114.7	61.9797	284
115.314	61.9797	284
115.52	61.7614	283
115.722	61.5432	282
116.331	61.5432	282
116.941	61.5432	282
119.218	62.4161	286
120.255	62.6344	287
120.875	62.6344	287
119.379	61.5432	282
119.138	61.1067	280
120.171	61.325	281
121.208	61.5432	282
122.25	61.7614	283
124.164	62.4161	286
126.091	63.0709	289
127.593	63.5073	291
128.222	63.5073	291
127.965	63.0709	289
129.48	63.5073	291
129.215	63.0709	289
129.39	62.8526	288
129.561	62.6344	287
127.006	61.1067	280
127.612	61.1067	280
129.591	61.7614	283
130.202	61.7614	283
131.276	61.9797	284
131.426	61.7614	283
131.571	61.5432	282
134.056	62.4161	286
136.558	63.2891	290
137.184	63.2891	290
137.811	63.2891	290
137.961	63.0709	289
138.586	63.0709	289
137.765	62.4161	286
139.351	62.8526	288
139.002	62.4161	286
139.62	62.4161	286
140.729	62.6344	287
140.856	62.4161	286
141.475	62.4161	286
141.099	61.9797	284
140.715	61.5432	282
141.325	61.5432	282
141.934	61.5432	282
145.071	62.6344	287
144.677	62.1979	285
145.293	62.1979	285
147.445	62.8526	288
147.039	62.4161	286
147.141	62.1979	285
147.757	62.1979	285
149.414	62.6344	287
152.126	63.5073	291
152.755	63.5073	291
153.911	63.7256	292
155.072	63.9438	293
153.579	63.0709	289
153.137	62.6344	287
153.221	62.4161	286
153.84	62.4161	286
153.918	62.1979	285
153.45	61.7614	283
153.517	61.5432	282
154.127	61.5432	282
154.736	61.5432	282
155.897	61.7614	283
157.614	62.1979	285
161.007	63.2891	290
161.076	63.0709	289
161.701	63.0709	289
159.517	61.9797	284
159.567	61.7614	283
161.877	62.4161	286
163.063	62.6344	287
164.254	62.8526	288
164.877	62.8526	288
164.925	62.6344	287
164.391	62.1979	285
165.586	62.4161	286
166.786	62.6344	287
167.406	62.6344	287
167.441	62.4161	286
168.059	62.4161	286
166.908	61.7614	283
166.928	61.5432	282
166.944	61.325	281
167.551	61.325	281
168.159	61.325	281
173.571	63.0709	289
173.593	62.8526	288
172.401	62.1979	285
169.981	61.1067	280
170.587	61.1067	280
171.803	61.325	281
173.024	61.5432	282
175.481	62.1979	285
176.097	62.1979	285
178.573	62.8526	288
179.196	62.8526	288
179.818	62.8526	288
179.188	62.4161	286
180.435	62.6344	287
-221.253	66.1199	300
-217.663	65.2383	296
-216.29	65.0179	295
-215.653	65.0179	295
-216.473	65.4587	297
-221.644	67.2219	305
-222.434	67.6627	307
-223.215	68.1035	309
-223.267	68.3239	310
-222.597	68.3239	310
-221.927	68.3239	310
-221.257	68.3239	310
-219.164	67.8831	308
-217.079	67.4423	306
-216.417	67.4423	306
-215.051	67.2219	305
-213.689	67.0015	304
-214.433	67.4423	306
-215.867	68.1035	309
-208.931	66.1199	300
-208.283	66.1199	300
-207.634	66.1199	300
-206.986	66.1199	300
-209.089	67.0015	304
-211.174	67.8831	308
-209.141	67.4423	306
-208.48	67.4423	306
-205.102	66.5607	302
-203.095	66.1199	300
-204.471	66.7811	303
-203.816	66.7811	303
-203.831	67.0015	304
-202.506	66.7811	303
-201.851	66.7811	303
-201.196	66.7811	303
-198.555	66.1199	300
-199.226	66.5607	302
-199.888	67.0015	304
-200.542	67.4423	306
-202.493	68.3239	310
-197.266	66.7811	303
-197.909	67.2219	305
-195.956	66.7811	303
-195.945	67.0015	304
-194.003	66.5607	302
-193.351	66.5607	302
-192.698	66.5607	302
-192.681	66.7811	303
-190.758	66.3403	301
-190.108	66.3403	301
-189.457	66.3403	301
-190.688	67.0015	304
-188.781	66.5607	302
-187.505	66.3403	301
-187.475	66.5607	302
-186.822	66.5607	302
-184.32	65.8995	299
-184.288	66.1199	300
-184.864	66.5607	302
-184.211	66.5607	302
-183.558	66.5607	302
-182.905	66.5607	302
-182.856	66.7811	303
-181.599	66.5607	302
-181.546	66.7811	303
-181.488	67.0015	304
-181.425	67.2219	305
-179.581	66.7811	303
-178.335	66.5607	302
-177.682	66.5607	302
-177.616	66.7811	303
-177.545	67.0015	304
-174.56	66.1199	300
-173.912	66.1199	300
-173.841	66.3403	301
-173.765	66.5607	302
-172.539	66.3403	301
-173.602	67.0015	304
-174.082	67.4423	306
-172.287	67.0015	304
-170.501	66.5607	302
-169.286	66.3403	301
-171.997	67.6627	307
-171.333	67.6627	307
-170.669	67.6627	307
-166.683	66.3403	301
-164.929	65.8995	299
-163.734	65.6791	298
-163.637	65.8995	299
-165.171	66.7811	303
-164.516	66.7811	303
-163.32	66.5607	302
-161.051	65.8995	299
-158.259	65.0179	295
-158.69	65.4587	297
-158.58	65.6791	298
-159.526	66.3403	301
-157.819	65.8995	299
-157.173	65.8995	299
-156.003	65.6791	298
-156.402	66.1199	300
-154.715	65.6791	298
-154.588	65.8995	299
-152.912	65.4587	297
-151.757	65.2383	296
-149.585	64.5771	293
-148.444	64.3567	292
-147.812	64.3567	292
-148.693	65.0179	295
-151.067	66.3403	301
-150.916	66.5607	302
-150.263	66.5607	302
-148.62	66.1199	300
-146.985	65.6791	298
-147.814	66.3403	301
-149.119	67.2219	305
-147.486	66.7811	303
-147.315	67.0015	304
-146.176	66.7811	303
-145.041	66.5607	302
-144.388	66.5607	302
-141.831	65.6791	298
-141.187	65.6791	298
-140.071	65.4587	297
-137.082	64.3567	292
-136.451	64.3567	292
-137.215	65.0179	295
-137.04	65.2383	296
-135.018	64.5771	293
-134.384	64.5771	293
-134.664	65.0179	295
-134.48	65.2383	296
-134.745	65.6791	298
-133.651	65.4587	297
-132.561	65.2383	296
-131.03	64.7975	294
-130.394	64.7975	294
-131.524	65.6791	298
-130.88	65.6791	298
-129.799	65.4587	297
-128.287	65.0179	295
-128.515	65.4587	297
-128.303	65.6791	298
-127.659	65.6791	298
-127.015	65.6791	298
-125.522	65.2383	296
-124.039	64.7975	294
-124.662	65.4587	297
-122.768	64.7975	294
-122.963	65.2383	296
-121.91	65.0179	295
-120.45	64.5771	293
-119.408	64.3567	292
-119.997	65.0179	295
-119.359	65.0179	295
-117.916	64.5771	293
-116.082	63.9159	290
-115.057	63.6955	289
-114.036	63.4751	288
-114.201	63.9159	290
-115.533	65.0179	295
-115.284	65.2383	296
-115.032	65.4587	297
-114.005	65.2383	296
-112.599	64.7975	294
-111.963	64.7975	294
-111.706	65.0179	295
-111.445	65.2383	296
-111.554	65.6791	298
-111.282	65.8995	299
-110.636	65.8995	299
-109.622	65.6791	298
-109.343	65.8995	299
-108.697	65.8995	299
-108.05	65.8995	299
-107.404	65.8995	299
-104.615	64.5771	293
-104.337	64.7975	294
-104.054	65.0179	295
-104.819	65.8995	299
-102.43	64.7975	294
-101.448	64.5771	293
-101.503	65.0179	295
-102.233	65.8995	299
-101.927	66.1199	300
-99.59	65.0179	295
-98.9523	65.0179	295
-98.3146	65.0179	295
-98.008	65.2383	296
-98.0261	65.6791	298
-96.0747	64.7975	294
-94.4653	64.1363	291
-92.5464	63.2547	287
-92.8869	63.9159	290
-93.2144	64.5771	293
-93.213	65.0179	295
-92.5753	65.0179	295
-92.2492	65.2383	296
-91.2999	65.0179	295
-89.7402	64.3567	292
-89.109	64.3567	292
-88.1747	64.1363	291
-87.5457	64.1363	291
-86.0206	63.4751	288
-86.8806	64.5771	293
-87.4247	65.4587	297
-86.1982	65.0179	295
-85.8506	65.2383	296
-84.9228	65.0179	295
-85.1422	65.6791	298
-84.2145	65.4587	297
-83.8539	65.6791	298
-83.2097	65.6791	298
-82.0114	65.2383	296
-81.9213	65.6791	298
-81.0044	65.4587	297
-79.8212	65.0179	295
-78.915	64.7975	294
-77.4807	64.1363	291
-76.3235	63.6955	289
-75.9607	63.9159	290
-75.5936	64.1363	291
-74.4493	63.6955	289
-73.5691	63.4751	288
-73.1998	63.6955	289
-72.0728	63.2547	287
-71.7014	63.4751	288
-73.0532	65.2383	296
-72.4133	65.2383	296
-72.7434	66.1199	300
-70.1723	64.3567	292
-70.0174	64.7975	294
-69.8539	65.2383	296
-69.4478	65.4587	297
-69.7325	66.3403	301
-68.6228	65.8995	299
-67.7491	65.6791	298
-65.979	64.5771	293
-65.5686	64.7975	294
-64.4913	64.3567	292
-63.8601	64.3567	292
-63.2289	64.3567	292
-62.1689	63.9159	290
-61.9665	64.3567	292
-60.495	63.4751	288
-60.9119	64.5771	293
-59.8671	64.1363	291
-60.4594	65.4587	297
-59.4146	65.0179	295
-58.7769	65.0179	295
-57.9421	64.7975	294
-56.9167	64.3567	292
-56.0927	64.1363	291
-55.6543	64.3567	292
-55.2115	64.5771	293
-54.9506	65.0179	295
-53.5765	64.1363	291
-53.3113	64.5771	293
-53.2173	65.2383	296
-52.3998	65.0179	295
-51.2357	64.3567	292
-50.7778	64.5771	293
-49.8021	64.1363	291
-49.1731	64.1363	291
-48.7108	64.3567	292
-48.0796	64.3567	292
-47.7734	64.7975	294
-47.1378	64.7975	294
-46.3441	64.5771	293
-45.3987	64.1363	291
-45.385	65.0179	295
-44.899	65.2383	296
-44.1096	65.0179	295
-43.1772	64.5771	293
-41.8178	63.4751	288
-41.4813	63.9159	290
-40.7135	63.6955	289
-39.6727	63.0343	286
-39.191	63.2547	287
-38.8393	63.6955	289
-38.6113	64.3567	292
-38.2402	64.7975	294
-37.8605	65.2383	296
-37.5979	65.8995	299
-36.5807	65.2383	296
-36.1837	65.6791	298
-35.5395	65.6791	298
-34.544	65.0179	295
-34.0213	65.2383	296
-33.3814	65.2383	296
-32.6309	65.0179	295
-31.8848	64.7975	294
-31.2492	64.7975	294
-30.7178	65.0179	295
-29.9781	64.7975	294
-28.9434	63.9159	290
-28.0236	63.2547	287
-27.1167	62.5935	284
-26.5961	62.8139	285
-26.1623	63.2547	287
-25.8979	64.1363	291
-25.4425	64.5771	293
-25.2325	65.6791	298
-24.4233	65.2383	296
-23.703	65.0179	295
-22.9872	64.7975	294
-22.1996	64.3567	292
-21.7899	65.0179	295
-21.2239	65.2383	296
-20.6536	65.4587	297
-19.9442	65.2383	296
-19.1739	64.7975	294
-18.16	63.4751	288
-17.7201	64.1363	291
-17.5022	65.6791	298
-17.0843	66.5607	302
-16.105	65.2383	296
-15.3084	64.5771	293
-14.5247	63.9159	290
-13.8978	63.9159	290
-13.4082	64.5771	293
-12.6004	63.6955	289
-12.1829	64.7975	294
-11.4688	64.3567	292
-10.8747	64.5771	293
-10.3462	65.2383	296
-9.60793	64.5771	293
-8.94392	64.3567	292
-8.34117	64.5771	293
-7.60256	63.6955	289
-6.92954	63.2547	287
-6.30912	63.2547	287
-5.80764	64.5771	293
-5.22724	65.2383	296
-4.58737	65.2383	296
-3.92083	64.7975	294
-3.26293	64.3567	292
-2.61369	63.9159	290
-1.98679	63.9159	290
-1.36927	64.3567	292
-0.740579	64.5771	293
-0.107197	64.5771	293
0.527982	64.7975	294
1.16353	64.7975	294
1.79295	64.5771	293
2.42633	64.5771	293
3.05972	64.5771	293
3.6931	64.5771	293
4.32648	64.5771	293
4.95986	64.5771	293
5.61234	64.7975	294
6.14162	63.6955	289
6.78977	63.9159	290
7.39109	63.6955	289
8.0713	64.1363	291
8.73026	64.3567	292
9.45766	65.0179	295
10.1296	65.2383	296
10.6239	64.3567	292
11.2551	64.3567	292
11.8864	64.3567	292
12.5605	64.5771	293
13.1038	64.1363	291
13.6385	63.6955	289
14.3125	63.9159	290
14.8364	63.4751	288
15.7274	64.5771	293
16.4724	65.0179	295
17.0521	64.7975	294
17.447	63.9159	290
18.1986	64.3567	292
18.8298	64.3567	292
19.3944	64.1363	291
19.7482	63.2547	287
20.5105	63.6955	289
21.1353	63.6955	289
21.6847	63.4751	288
22.1524	63.0343	286
22.8502	63.2547	287
23.3889	63.0343	286
24.259	63.6955	289
25.142	64.3567	292
25.9497	64.7975	294
26.4949	64.5771	293
27.2208	64.7975	294
27.8564	64.7975	294
28.395	64.5771	293
29.0284	64.5771	293
29.5605	64.3567	292
30.2952	64.5771	293
30.9285	64.5771	293
31.5619	64.5771	293
31.7558	63.6955	289
32.1564	63.2547	287
32.7768	63.2547	287
33.63	63.6955	289
34.7288	64.5771	293
35.7243	65.2383	296
36.487	65.4587	297
36.879	65.0179	295
37.3895	64.7975	294
37.5077	63.9159	290
38.1346	63.9159	290
38.7615	63.9159	290
39.6601	64.3567	292
40.4293	64.5771	293
41.0627	64.5771	293
41.4114	64.1363	291
42.0405	64.1363	291
42.6696	64.1363	291
43.2986	64.1363	291
43.9277	64.1363	291
43.638	62.8139	285
43.7883	62.1527	282
44.5553	62.3731	283
45.4863	62.8139	285
46.4259	63.2547	287
47.5381	63.9159	290
48.165	63.9159	290
48.7919	63.9159	290
49.5892	64.1363	291
50.5634	64.5771	293
51.721	65.2383	296
52.5377	65.4587	297
53.1798	65.4587	297
53.0969	64.5771	293
53.5469	64.3567	292
53.436	63.4751	288
53.6832	63.0343	286
54.4913	63.2547	287
55.1117	63.2547	287
55.9263	63.4751	288
56.5489	63.4751	288
57.1714	63.4751	288
57.794	63.4751	288
58.4166	63.4751	288
59.2441	63.6955	289
60.4904	64.3567	292
61.9589	65.2383	296
62.3872	65.0179	295
62.384	64.3567	292
62.7994	64.1363	291
63.2105	63.9159	290
63.8374	63.9159	290
64.4643	63.9159	290
65.3157	64.1363	291
66.8512	65.0179	295
67.2601	64.7975	294
67.6647	64.5771	293
68.7643	65.0179	295
69.402	65.0179	295
69.3275	64.3567	292
69.9587	64.3567	292
70.5899	64.3567	292
70.9772	64.1363	291
71.6063	64.1363	291
73.2282	65.0179	295
73.3652	64.5771	293
73.4934	64.1363	291
74.6319	64.5771	293
73.9809	63.4751	288
74.6035	63.4751	288
74.7037	63.0343	286
74.7952	62.5935	284
75.4091	62.5935	284
76.023	62.5935	284
77.4465	63.2547	287
78.611	63.6955	289
79.2357	63.6955	289
79.8604	63.6955	289
80.7637	63.9159	290
82.2325	64.5771	293
82.5831	64.3567	292
82.9293	64.1363	291
82.4098	63.2547	287
83.0302	63.2547	287
83.9421	63.4751	288
85.1519	63.9159	290
86.3704	64.3567	292
87.2996	64.5771	293
87.6329	64.3567	292
87.9618	64.1363	291
88.2864	63.9159	290
89.2199	64.1363	291
88.6139	63.2547	287
89.2344	63.2547	287
89.8548	63.2547	287
91.4209	63.9159	290
92.0478	63.9159	290
92.9943	64.1363	291
93.3016	63.9159	290
93.6046	63.6955	289
93.5772	63.2547	287
93.5412	62.8139	285
93.4966	62.3731	283
94.7734	62.8139	285
95.7242	63.0343	286
97.353	63.6955	289
98.3168	63.9159	290
96.8966	62.5935	284
99.5706	63.9159	290
99.852	63.6955	289
100.129	63.4751	288
99.7021	62.8139	285
99.9662	62.5935	284
99.5177	61.9323	281
99.4125	61.4915	279
100.374	61.7119	280
101.701	62.1527	282
103.399	62.8139	285
105.11	63.4751	288
105.365	63.2547	287
106.355	63.4751	288
106.977	63.4751	288
107.226	63.2547	287
106.344	62.3731	283
106.955	62.3731	283
107.947	62.5935	284
108.561	62.5935	284
109.944	63.0343	286
110.949	63.2547	287
111.958	63.4751	288
112.581	63.4751	288
112.417	63.0343	286
111.85	62.3731	283
113.256	62.8139	285
113.872	62.8139	285
114.89	63.0343	286
113.893	62.1527	282
114.502	62.1527	282
115.52	62.3731	283
115.722	62.1527	282
116.331	62.1527	282
116.526	61.9323	281
117.133	61.9323	281
117.741	61.9323	281
118.348	61.9323	281
118.109	61.4915	279
117.861	61.0507	277
117.605	60.6099	275
117.34	60.1691	273
121.386	61.9323	281
123.295	62.5935	284
123.473	62.3731	283
123.646	62.1527	282
126.9	63.4751	288
127.079	63.2547	287
128.145	63.4751	288
127.873	63.0343	286
127.144	62.3731	283
125.95	61.4915	279
127.46	61.9323	281
128.067	61.9323	281
129.133	62.1527	282
129.742	62.1527	282
131.276	62.5935	284
131.426	62.3731	283
131.571	62.1527	282
131.712	61.9323	281
133.261	62.3731	283
134.346	62.5935	284
136.861	63.4751	288
136.051	62.8139	285
135.229	62.1527	282
136.802	62.5935	284
138.383	63.0343	286
138.03	62.5935	284
138.155	62.3731	283
139.258	62.5935	284
140.364	62.8139	285
140.98	62.8139	285
140.602	62.3731	283
140.216	61.9323	281
140.824	61.9323	281
140.928	61.7119	280
142.544	62.1527	282
143.154	62.1527	282
143.763	62.1527	282
144.885	62.3731	283
143.44	61.4915	279
143.527	61.2711	278
146.202	62.1527	282
147.853	62.5935	284
147.944	62.3731	283
149.08	62.5935	284
153.384	64.1363	291
152.425	63.4751	288
152.516	63.2547	287
152.07	62.8139	285
153.221	63.0343	286
152.226	62.3731	283
151.218	61.7119	280
151.281	61.4915	279
152.428	61.7119	280
153.033	61.7119	280
152.541	61.2711	278
153.693	61.4915	279
155.402	61.9323	281
158.786	63.0343	286
158.847	62.8139	285
158.903	62.5935	284
157.27	61.7119	280
158.44	61.9323	281
161.311	62.8139	285
162.495	63.0343	286
163.684	63.2547	287
164.877	63.4751	288
163.775	62.8139	285
162.661	62.1527	282
163.271	62.1527	282
163.88	62.1527	282
165.656	62.5935	284
166.856	62.8139	285
167.472	62.8139	285
166.908	62.3731	283
165.152	61.4915	279
165.161	61.2711	278
165.762	61.2711	278
170.552	62.8139	285
170.568	62.5935	284
170.579	62.3731	283
168.771	61.4915	279
168.767	61.2711	278
168.759	61.0507	277
170.58	61.4915	279
170.57	61.2711	278
172.402	61.7119	280
173.008	61.7119	280
174.853	62.1527	282
177.951	63.0343	286
177.945	62.8139	285
177.935	62.5935	284
175.405	61.4915	279
-218.303	65.8781	296
-215.457	65.2105	293
-213.357	64.7653	291
-214.921	65.433	294
-214.286	65.433	294
-218.011	66.7684	300
-218.811	67.2135	302
-219.603	67.6586	304
-218.946	67.6586	304
-218.289	67.6586	304
-218.348	67.8812	305
-216.974	67.6586	304
-215.606	67.4361	303
-214.241	67.2135	302
-213.588	67.2135	302
-212.936	67.2135	302
-212.283	67.2135	302
-214.433	68.1038	306
-210.279	66.9909	301
-211.717	67.6586	304
-211.06	67.6586	304
-206.25	66.3233	298
-206.296	66.5458	299
-206.337	66.7684	300
-208.431	67.6586	304
-207.091	67.4361	303
-206.436	67.4361	303
-203.064	66.5458	299
-201.064	66.1007	297
-201.097	66.3233	298
-202.47	66.9909	301
-201.82	66.9909	301
-199.832	66.5458	299
-199.186	66.5458	299
-197.876	66.3233	298
-197.893	66.5458	299
-197.907	66.7684	300
-197.916	66.9909	301
-199.231	67.6586	304
-197.921	67.4361	303
-190.755	65.2105	293
-190.122	65.2105	293
-190.135	65.433	294
-190.144	65.6556	295
-192.076	66.5458	299
-192.07	66.7684	300
-192.698	67.2135	302
-191.409	66.9909	301
-189.491	66.5458	299
-188.844	66.5458	299
-189.457	66.9909	301
-190.061	67.4361	303
-188.156	66.9909	301
-188.128	67.2135	302
-187.475	67.2135	302
-185.585	66.7684	300
-183.703	66.3233	298
-182.445	66.1007	297
-183.027	66.5458	299
-184.211	67.2135	302
-183.558	67.2135	302
-182.299	66.9909	301
-182.252	67.2135	302
-180.998	66.9909	301
-179.748	66.7684	300
-179.697	66.9909	301
-179.641	67.2135	302
-178.395	66.9909	301
-177.154	66.7684	300
-176.506	66.7684	300
-176.443	66.9909	301
-175.793	66.9909	301
-175.724	67.2135	302
-175.071	67.2135	302
-171.53	66.1007	297
-169.738	65.6556	295
-170.246	66.1007	297
-170.175	66.3233	298
-168.393	65.8781	296
-167.754	65.8781	296
-167.114	65.8781	296
-168.161	66.5458	299
-168.635	66.9909	301
-167.985	66.9909	301
-166.778	66.7684	300
-165.022	66.3233	298
-163.826	66.1007	297
-162.635	65.8781	296
-161.448	65.6556	295
-161.9	66.1007	297
-162.887	66.7684	300
-162.238	66.7684	300
-160.513	66.3233	298
-158.795	65.8781	296
-158.156	65.8781	296
-158.58	66.3233	298
-158.466	66.5458	299
-157.292	66.3233	298
-155.596	65.8781	296
-154.956	65.8781	296
-153.274	65.433	294
-152.638	65.433	294
-153.554	66.1007	297
-153.426	66.3233	298
-150.732	65.433	294
-151.117	65.8781	296
-150.986	66.1007	297
-151.356	66.5458	299
-149.701	66.1007	297
-148.056	65.6556	295
-148.917	66.3233	298
-148.273	66.3233	298
-147.133	66.1007	297
-145.505	65.6556	295
-144.867	65.6556	295
-144.718	65.8781	296
-143.105	65.433	294
-141.985	65.2105	293
-143.281	66.1007	297
-142.159	65.8781	296
-141.519	65.8781	296
-140.879	65.8781	296
-140.239	65.8781	296
-137.241	64.7653	291
-135.204	64.0976	288
-135.983	64.7653	291
-135.819	64.9879	292
-134.262	64.5428	290
-133.635	64.5428	290
-133.467	64.7653	291
-134.207	65.433	294
-134.026	65.6556	295
-133.388	65.6556	295
-132.751	65.6556	295
-132.113	65.6556	295
-130.138	64.9879	292
-129.507	64.9879	292
-128.435	64.7653	291
-127.805	64.7653	291
-128.925	65.6556	295
-128.287	65.6556	295
-127.216	65.433	294
-126.581	65.433	294
-125.945	65.433	294
-124.884	65.2105	293
-124.25	65.2105	293
-123.195	64.9879	292
-123.403	65.433	294
-121.932	64.9879	292
-121.301	64.9879	292
-120.257	64.7653	291
-119.628	64.7653	291
-118.999	64.7653	291
-117.963	64.5428	290
-118.145	64.9879	292
-117.111	64.7653	291
-115.682	64.3202	289
-114.659	64.0976	288
-113.244	63.6525	286
-112.626	63.6525	286
-112.008	63.6525	286
-111.779	63.8751	287
-111.546	64.0976	288
-112.079	64.7653	291
-112.982	65.6556	295
-111.583	65.2105	293
-109.434	64.3202	289
-108.433	64.0976	288
-108.934	64.7653	291
-109.049	65.2105	293
-109.156	65.6556	295
-108.886	65.8781	296
-108.246	65.8781	296
-107.606	65.8781	296
-106.966	65.8781	296
-105.967	65.6556	295
-104.258	64.9879	292
-104.692	65.6556	295
-104.054	65.6556	295
-102.014	64.7653	291
-101.733	64.9879	292
-100.41	64.5428	290
-100.127	64.7653	291
-101.549	66.1007	297
-100.907	66.1007	297
-99.9276	65.8781	296
-98.6169	65.433	294
-97.6481	65.2105	293
-97.6769	65.6556	295
-98.0261	66.3233	298
-97.0551	66.1007	297
-96.4131	66.1007	297
-94.4812	65.2105	293
-92.8869	64.5428	290
-91.3056	63.8751	287
-90.3692	63.6525	286
-91.0062	64.5428	290
-90.0677	64.3202	289
-89.1334	64.0976	288
-90.0475	65.2105	293
-89.4141	65.2105	293
-86.9627	63.8751	287
-86.3423	63.8751	287
-85.7219	63.8751	287
-85.1015	63.8751	287
-85.6585	64.7653	291
-85.906	65.433	294
-84.9804	65.2105	293
-83.4834	64.5428	290
-82.5708	64.3202	289
-82.2297	64.5428	290
-82.1655	64.9879	292
-82.0928	65.433	294
-81.1802	65.2105	293
-80.5468	65.2105	293
-79.9134	65.2105	293
-79.0094	64.9879	292
-78.3782	64.9879	292
-77.2145	64.5428	290
-76.0594	64.0976	288
-75.9607	64.5428	290
-75.3338	64.5428	290
-74.4493	64.3202	289
-72.8027	63.43	285
-72.6932	63.8751	287
-71.8217	63.6525	286
-71.2034	63.6525	286
-70.832	63.8751	287
-69.9669	63.6525	286
-71.2885	65.433	294
-70.1723	64.9879	292
-70.0174	65.433	294
-70.3259	66.3233	298
-69.9155	66.5458	299
-69.7325	66.9909	301
-68.1638	66.1007	297
-67.5217	66.1007	297
-65.7538	64.9879	292
-64.6765	64.5428	290
-64.2705	64.7653	291
-63.8601	64.9879	292
-62.7958	64.5428	290
-62.1689	64.5428	290
-61.9665	64.9879	292
-60.7051	64.3202	289
-60.0804	64.3202	289
-59.6613	64.5428	290
-58.4237	63.8751	287
-58.609	64.7653	291
-57.9799	64.7653	291
-57.5479	64.9879	292
-56.7218	64.7653	291
-55.9	64.5428	290
-55.0825	64.3202	289
-54.8346	64.7653	291
-54.2055	64.7653	291
-53.5765	64.7653	291
-53.1294	64.9879	292
-52.6779	65.2105	293
-51.8669	64.9879	292
-50.3584	63.8751	287
-50.2579	64.5428	290
-49.8021	64.7653	291
-49.1731	64.7653	291
-48.7108	64.9879	292
-48.4089	65.433	294
-47.7734	65.433	294
-46.9775	65.2105	293
-46.0278	64.7653	291
-45.2427	64.5428	290
-44.7697	64.7653	291
-44.444	65.2105	293
-43.6611	64.9879	292
-42.7351	64.5428	290
-40.9466	62.7623	282
-40.6231	63.2074	284
-40.15	63.43	285
-40.6437	65.2105	293
-38.7813	63.2074	284
-38.1674	63.2074	284
-37.8179	63.6525	286
-37.5899	64.3202	289
-37.7326	65.6556	295
-37.3464	66.1007	297
-36.4572	65.6556	295
-35.5766	65.2105	293
-34.824	64.9879	292
-34.1928	64.9879	292
-33.9063	65.6556	295
-33.0431	65.2105	293
-32.2991	64.9879	292
-31.2341	64.0976	288
-30.7178	64.3202	289
-30.3013	64.7653	291
-29.8762	65.2105	293
-29.2428	65.2105	293
-28.6094	65.2105	293
-27.7851	64.7653	291
-26.7827	63.8751	287
-26.0712	63.6525	286
-25.3639	63.43	285
-25.0952	64.3202	289
-24.5551	64.5428	290
-24.0107	64.7653	291
-23.3816	64.7653	291
-23.0653	65.6556	295
-22.4276	65.6556	295
-21.6422	65.2105	293
-20.9371	64.9879	292
-20.3059	64.9879	292
-19.6747	64.9879	292
-18.9782	64.7653	291
-18.16	64.0976	288
-17.6592	64.5428	290
-17.1498	64.9879	292
-16.8014	66.1007	297
-15.9962	65.433	294
-15.1516	64.5428	290
-14.5247	64.5428	290
-13.9937	64.9879	292
-13.2252	64.3202	289
-12.6004	64.3202	289
-12.0171	64.5428	290
-11.3903	64.5428	290
-10.7262	64.3202	289
-10.0665	64.0976	288
-9.44398	64.0976	288
-8.97455	65.2105	293
-8.36964	65.433	294
-7.68148	64.9879	292
-7.00197	64.5428	290
-6.463	65.433	294
-5.70853	64.0976	288
-5.10362	64.3202	289
-4.54087	65.2105	293
-3.86748	64.5428	290
-3.25176	64.7653	291
-2.59566	64.0976	288
-1.97309	64.0976	288
-1.34114	63.6525	286
-0.720358	63.43	285
-0.105367	64.0976	288
0.519002	64.3202	289
1.14374	64.3202	289
1.76847	64.3202	289
2.42633	65.2105	293
3.05972	65.2105	293
3.6931	65.2105	293
4.31171	64.9879	292
4.92601	64.7653	291
5.61234	65.433	294
6.22663	65.2105	293
6.8366	64.9879	292
7.46782	64.9879	292
8.0713	64.7653	291
8.73026	64.9879	292
9.36148	64.9879	292
10.0269	65.2105	293
10.6239	64.9879	292
11.2166	64.7653	291
11.7642	64.3202	289
12.389	64.3202	289
13.1038	64.7653	291
13.6856	64.5428	290
14.2138	64.0976	288
14.7334	63.6525	286
15.3516	63.6525	286
15.8582	63.2074	284
16.5301	63.43	285
17.2064	63.6525	286
17.887	63.8751	287
18.6363	64.3202	289
19.1944	64.0976	288
19.7482	63.8751	287
20.5105	64.3202	289
20.989	63.8751	287
21.5341	63.6525	286
22.0749	63.43	285
22.8502	63.8751	287
23.3889	63.6525	286
23.8393	63.2074	284
24.4532	63.2074	284
25.4202	64.0976	288
26.1332	64.3202	289
26.8505	64.5428	290
27.8564	65.433	294
28.2981	64.9879	292
28.9293	64.9879	292
29.3581	64.5428	290
30.0884	64.7653	291
30.823	64.9879	292
31.3465	64.7653	291
31.6459	64.0976	288
32.0444	63.6525	286
32.7768	63.8751	287
33.63	64.3202	289
34.4918	64.7653	291
34.8795	64.3202	289
35.5042	64.3202	289
36.0039	64.0976	288
36.6265	64.0976	288
37.3784	64.3202	289
37.7401	63.8751	287
38.4942	64.0976	288
39.2526	64.3202	289
40.0153	64.5428	290
40.5021	64.3202	289
41.4114	64.7653	291
42.0405	64.7653	291
42.5229	64.5428	290
42.7034	63.8751	287
42.871	63.2074	284
43.1787	62.7623	282
43.9436	62.9848	283
44.3979	62.7623	282
45.1671	62.9848	283
45.9406	63.2074	284
47.0463	63.8751	287
47.9989	64.3202	289
48.4554	64.0976	288
49.7596	64.9879	292
50.9085	65.6556	295
51.1968	65.2105	293
51.8302	65.2105	293
52.2845	64.9879	292
52.0096	63.8751	287
52.0799	63.2074	284
52.5083	62.9848	283
52.9323	62.7623	282
52.7825	61.872	278
53.3834	61.872	278
54.567	62.5397	281
55.5671	62.9848	283
56.3774	63.2074	284
57.192	63.43	285
58.0109	63.6525	286
58.8342	63.8751	287
59.6617	64.0976	288
59.6563	63.43	285
60.4839	63.6525	286
60.6749	63.2074	284
60.8572	62.7623	282
62.5566	63.8751	287
63.3972	64.0976	288
64.4643	64.5428	290
65.0912	64.5428	290
65.4915	64.3202	289
66.345	64.5428	290
66.51	64.0976	288
66.6664	63.6525	286
67.9904	64.3202	289
68.8526	64.5428	290
69.0003	64.0976	288
69.8647	64.3202	289
70.2455	64.0976	288
70.622	63.8751	287
70.9942	63.6525	286
71.6124	63.6525	286
73.4934	64.7653	291
73.8678	64.5428	290
73.9809	64.0976	288
73.5673	63.2074	284
73.3977	62.5397	281
74.0051	62.5397	281
75.1436	62.9848	283
76.2907	63.43	285
76.9068	63.43	285
78.3389	64.0976	288
77.3165	62.7623	282
77.9261	62.7623	282
79.3712	63.43	285
80.2679	63.6525	286
81.7346	64.3202	289
81.7894	63.8751	287
81.8355	63.43	285
82.4516	63.43	285
83.0677	63.43	285
84.5647	64.0976	288
85.483	64.3202	289
84.618	63.2074	284
87.0326	64.5428	290
86.1482	63.43	285
87.982	64.3202	289
87.3803	63.43	285
87.3789	62.9848	283
88.3016	63.2074	284
88.6024	62.9848	283
89.8447	63.43	285
90.4608	63.43	285
90.7573	63.2074	284
92.3364	63.8751	287
92.9568	63.8751	287
93.5772	63.8751	287
93.213	63.2074	284
93.4966	62.9848	283
93.7758	62.7623	282
95.3895	63.43	285
96.6793	63.8751	287
95.6046	62.7623	282
94.5083	61.6495	277
95.1071	61.6495	277
97.0879	62.5397	281
97.6953	62.5397	281
99.3523	63.2074	284
98.9102	62.5397	281
99.8718	62.7623	282
99.0562	61.872	278
100.016	62.0946	279
100.258	61.872	278
100.859	61.872	278
101.46	61.872	278
101.694	61.6495	277
104.139	62.7623	282
105.12	62.9848	283
105.358	62.7623	282
105.592	62.5397	281
106.577	62.7623	282
107.947	63.2074	284
108.943	63.43	285
109.944	63.6525	286
110.562	63.6525	286
111.569	63.8751	287
111.017	63.2074	284
110.452	62.5397	281
111.454	62.7623	282
112.461	62.9848	283
113.872	63.43	285
112.881	62.5397	281
112.681	62.0946	279
114.502	62.7623	282
115.52	62.9848	283
116.132	62.9848	283
116.744	62.9848	283
116.526	62.5397	281
116.3	62.0946	279
116.484	61.872	278
116.664	61.6495	277
115.992	60.9818	274
114.457	59.869	269
115.466	60.0915	270
118.199	61.2043	275
121.386	62.5397	281
122.861	62.9848	283
123.037	62.7623	282
122.769	62.3172	280
122.493	61.872	278
124.423	62.5397	281
127.255	63.6525	286
126.979	63.2074	284
126.694	62.7623	282
125.95	62.0946	279
127.46	62.5397	281
128.523	62.7623	282
129.133	62.7623	282
129.742	62.7623	282
129.89	62.5397	281
131.426	62.9848	283
131.105	62.5397	281
131.712	62.5397	281
130.436	61.6495	277
132.454	62.3172	280
133.534	62.5397	281
134.142	62.5397	281
135.229	62.7623	282
134.875	62.3172	280
134.996	62.0946	279
135.6	62.0946	279
137.667	62.7623	282
136.806	62.0946	279
138.886	62.7623	282
141.475	63.6525	286
142.093	63.6525	286
142.711	63.6525	286
140.323	62.3172	280
140.928	62.3172	280
141.028	62.0946	279
141.631	62.0946	279
142.234	62.0946	279
143.861	62.5397	281
142.926	61.872	278
142.494	61.4269	276
141.536	60.7592	273
144.729	61.872	278
145.853	62.0946	279
146.456	62.0946	279
147.059	62.0946	279
149.25	62.7623	282
151.454	63.43	285
151.003	62.9848	283
149.471	62.0946	279
149.537	61.872	278
149.057	61.4269	276
149.654	61.4269	276
151.339	61.872	278
151.94	61.872	278
152.541	61.872	278
153.142	61.872	278
153.743	61.872	278
155.455	62.3172	280
156.617	62.5397	281
155.546	61.872	278
157.27	62.3172	280
156.748	61.872	278
157.349	61.872	278
159.086	62.3172	280
160.832	62.7623	282
159.152	61.872	278
160.327	62.0946	279
161.507	62.3172	280
162.692	62.5397	281
163.88	62.7623	282
163.907	62.5397	281
164.514	62.5397	281
164.534	62.3172	280
166.908	62.9848	283
161.009	60.5367	272
161.003	60.3141	271
165.166	61.6495	277
168.159	62.5397	281
168.766	62.5397	281
168.771	62.3172	280
169.376	62.3172	280
168.767	61.872	278
168.15	61.4269	276
168.135	61.2043	275
169.956	61.6495	277
170.555	61.6495	277
169.918	61.2043	275
171.753	61.6495	277
173.596	62.0946	279
173.575	61.872	278
173.549	61.6495	277
173.519	61.4269	276
-216.091	65.8438	293
-213.251	65.1696	290
-211.158	64.7202	288
-211.997	65.1696	290
-211.37	65.1696	290
-215.104	66.5179	296
-216.638	67.1921	299
-216.714	67.4168	300
-216.785	67.6416	301
-216.135	67.6416	301
-214.768	67.4168	300
-214.12	67.4168	300
-212.759	67.1921	299
-212.823	67.4168	300
-212.174	67.4168	300
-210.115	66.9674	298
-209.471	66.9674	298
-210.929	67.6416	301
-202.594	65.1696	290
-201.967	65.1696	290
-201.34	65.1696	290
-202.79	65.8438	293
-204.916	66.7427	297
-204.962	66.9674	298
-206.374	67.6416	301
-205.04	67.4168	300
-204.392	67.4168	300
-202.385	66.9674	298
-199.71	66.2932	295
-199.072	66.2932	295
-199.78	66.7427	297
-200.479	67.1921	299
-199.164	66.9674	298
-198.52	66.9674	298
-197.212	66.7427	297
-195.246	66.2932	295
-194.608	66.2932	295
-193.971	66.2932	295
-193.988	66.5179	296
-190.736	65.619	292
-190.755	65.8438	293
-190.122	65.8438	293
-189.489	65.8438	293
-188.855	65.8438	293
-189.507	66.2932	295
-190.149	66.7427	297
-190.145	66.9674	298
-189.501	66.9674	298
-188.857	66.9674	298
-189.476	67.4168	300
-188.827	67.4168	300
-188.179	67.4168	300
-188.781	67.8663	302
-187.505	67.6416	301
-185.613	67.1921	299
-186.822	67.8663	302
-183.703	66.9674	298
-182.445	66.7427	297
-181.803	66.7427	297
-182.991	67.4168	300
-182.342	67.4168	300
-181.088	67.1921	299
-179.235	66.7427	297
-179.194	66.9674	298
-177.951	66.7427	297
-177.906	66.9674	298
-177.856	67.1921	299
-176.025	66.7427	297
-176.564	67.1921	299
-175.917	67.1921	299
-175.271	67.1921	299
-174.041	66.9674	298
-173.978	67.1921	299
-171.593	66.5179	296
-170.953	66.5179	296
-170.313	66.5179	296
-168.527	66.0685	294
-167.891	66.0685	294
-166.118	65.619	292
-164.92	65.3943	291
-165.985	66.0685	294
-164.787	65.8438	293
-164.714	66.0685	294
-164.636	66.2932	295
-164.554	66.5179	296
-164.468	66.7427	297
-163.826	66.7427	297
-162.085	66.2932	295
-160.9	66.0685	294
-161.355	66.5179	296
-162.344	67.1921	299
-161.698	67.1921	299
-160.513	66.9674	298
-158.795	66.5179	296
-157.087	66.0685	294
-156.451	66.0685	294
-154.756	65.619	292
-156.236	66.5179	296
-153.493	65.619	292
-153.386	65.8438	293
-152.752	65.8438	293
-152.119	65.8438	293
-153.037	66.5179	296
-151.882	66.2932	295
-149.706	65.619	292
-149.075	65.619	292
-149.46	66.0685	294
-149.331	66.2932	295
-148.693	66.2932	295
-148.558	66.5179	296
-145.919	65.619	292
-145.288	65.619	292
-144.656	65.619	292
-144.025	65.619	292
-143.885	65.8438	293
-142.763	65.619	292
-142.132	65.619	292
-140.047	64.9449	289
-139.422	64.9449	289
-140.718	65.8438	293
-140.085	65.8438	293
-139.927	66.0685	294
-139.292	66.0685	294
-138.656	66.0685	294
-135.673	64.9449	289
-135.049	64.9449	289
-134.889	65.1696	290
-133.336	64.7202	288
-132.714	64.7202	288
-132.55	64.9449	289
-132.838	65.3943	291
-132.663	65.619	292
-132.484	65.8438	293
-131.851	65.8438	293
-131.665	66.0685	294
-130.138	65.619	292
-128.62	65.1696	290
-127.552	64.9449	289
-127.366	65.1696	290
-126.739	65.1696	290
-127.417	65.8438	293
-126.351	65.619	292
-125.289	65.3943	291
-123.803	64.9449	289
-122.326	64.4954	287
-121.706	64.4954	287
-122.351	65.1696	290
-120.885	64.7202	288
-120.68	64.9449	289
-119.224	64.4954	287
-119.017	64.7202	288
-118.394	64.7202	288
-117.363	64.4954	287
-115.929	64.046	285
-114.908	63.8213	284
-114.697	64.046	285
-115.282	64.7202	288
-113.863	64.2707	286
-112.849	64.046	285
-112.232	64.046	285
-111.225	63.8213	284
-111.39	64.2707	286
-111.933	64.9449	289
-112.079	65.3943	291
-111.833	65.619	292
-110.44	65.1696	290
-107.541	63.8213	284
-106.174	63.3718	282
-105.939	63.5965	283
-107.188	64.7202	288
-107.306	65.1696	290
-107.047	65.3943	291
-106.783	65.619	292
-106.515	65.8438	293
-104.798	65.1696	290
-104.53	65.3943	291
-103.901	65.3943	291
-103.272	65.3943	291
-101.938	64.9449	289
-100.962	64.7202	288
-100.34	64.7202	288
-99.3709	64.4954	287
-99.0946	64.7202	288
-99.1559	65.1696	290
-98.529	65.1696	290
-98.2397	65.3943	291
-98.2815	65.8438	293
-97.9814	66.0685	294
-97.6769	66.2932	295
-96.7103	66.0685	294
-95.7479	65.8438	293
-93.8161	64.9449	289
-93.5138	65.1696	290
