376.91	68.5179	610
378.228	68.5179	610
379.547	68.5179	610
377.744	67.9562	605
377.798	67.7316	603
-477.169	74.0724	647
-473.565	73.7289	644
-472.173	73.7289	644
-472.242	73.9579	646
-470.846	73.9579	646
-470.176	74.0724	647
-469.502	74.1869	648
-468.101	74.1869	648
-467.421	74.3013	649
-466.018	74.3013	649
-472.49	75.5607	660
-475.345	76.2476	666
-477.464	76.82	671
-476.722	76.9345	672
-476.684	77.1635	674
-475.227	77.1635	674
-476.582	77.6214	678
-473.014	77.278	675
-468.062	76.7055	670
-449.899	73.9579	646
-454.751	74.9883	655
-454.719	75.2172	657
-453.299	75.2172	657
-449.815	74.8738	654
-445.659	74.4158	650
-440.837	73.8434	645
-440.805	74.0724	647
-441.444	74.4158	650
-438.685	74.1869	648
-437.284	74.1869	648
-439.919	74.8738	654
-439.846	75.1027	656
-436.423	74.7593	653
-433.013	74.4158	650
-428.952	73.9579	646
-423.584	73.271	640
-420.882	73.042	638
-419.502	73.042	638
-418.779	73.1565	639
-417.397	73.1565	639
-415.365	73.042	638
-413.986	73.042	638
-415.193	73.4999	642
-415.739	73.8434	645
-416.914	74.3013	649
-416.792	74.5303	651
-415.385	74.5303	651
-412.706	74.3013	649
-408.134	73.7289	644
-404.847	73.3855	641
-402.203	73.1565	639
-401.448	73.271	640
-400.69	73.3855	641
-403.042	74.0724	647
-405.989	74.8738	654
-407.05	75.3317	658
-403.161	74.8738	654
-401.748	74.8738	654
-395.437	73.9579	646
-389.77	73.1565	639
-385.958	72.6985	635
-383.98	72.584	634
-385.023	73.042	638
-384.245	73.1565	639
-381.066	72.813	636
-380.288	72.9275	637
-380.696	73.271	640
-382.276	73.8434	645
-381.472	73.9579	646
-384.194	74.7593	653
-383.955	74.9883	655
-383.707	75.2172	657
-381.705	75.1027	656
-377.968	74.6448	652
-375.403	74.4158	650
-373.998	74.4158	650
-370.3	73.9579	646
-369.475	74.0724	647
-370.352	74.5303	651
-372.912	75.3317	658
-374.877	76.0186	664
-377.941	76.9345	672
-377.609	77.1635	674
-372.803	76.4766	668
-365.8	75.3317	658
-360.501	74.5303	651
-357.439	74.1869	648
-354.939	73.9579	646
-350.806	73.3855	641
-341.789	71.7826	627
-338.805	71.4392	624
-337.997	71.5537	625
-338.261	71.8971	628
-336.904	71.8971	628
-339.286	72.6985	635
-341.107	73.3855	641
-342.371	73.9579	646
-339.919	73.7289	644
-334.847	72.9275	637
-327.712	71.6682	626
-323.752	71.0957	621
-322.928	71.2102	622
-323.652	71.6682	626
-323.328	71.8971	628
-323.509	72.2406	631
-323.676	72.584	634
-322.306	72.584	634
-321.442	72.6985	635
-319.565	72.584	634
-314.681	71.7826	627
-312.326	71.5537	625
-312.468	71.8971	628
-310.12	71.6682	626
-305.314	70.8668	619
-302.502	70.5233	616
-300.193	70.2943	614
-302.273	71.0957	621
-302.869	71.5537	625
-304.412	72.2406	631
-302.088	72.0116	629
-299.294	71.6682	626
-295.561	71.0957	621
-294.218	71.0957	621
-292.404	70.9812	620
-290.595	70.8668	619
-289.724	70.9812	620
-288.849	71.0957	621
-287.506	71.0957	621
-286.164	71.0957	621
-286.197	71.4392	624
-285.305	71.5537	625
-284.408	71.6682	626
-283.959	71.8971	628
-282.602	71.8971	628
-282.14	72.1261	630
-279.441	71.7826	627
-277.198	71.5537	625
-272.316	70.6378	617
-270.983	70.6378	617
-272.271	71.3247	623
-276.143	72.6985	635
-274.337	72.584	634
-271.245	72.1261	630
-269.883	72.1261	630
-267.242	71.7826	627
-266.735	72.0116	629
-263.688	71.5537	625
-264.435	72.1261	630
-258.063	70.7523	618
-252.988	69.7219	609
-250.432	69.3784	606
-251.177	69.9509	611
-255.581	71.5537	625
-256.671	72.2406	631
-258.544	73.1565	639
-257.565	73.271	640
-253.379	72.4696	633
-250.418	72.0116	629
-249.455	72.1261	630
-250.062	72.6985	635
-245.948	71.8971	628
-246.148	72.3551	632
-245.169	72.4696	633
-242.26	72.0116	629
-238.602	71.3247	623
-235.352	70.7523	618
-234.016	70.7523	618
-230.044	69.9509	611
-232.092	70.9812	620
-231.124	71.0957	621
-229.782	71.0957	621
-226.232	70.4088	615
-227.463	71.2102	622
-226.118	71.2102	622
-226.942	71.8971	628
-225.943	72.0116	629
-224.227	71.8971	628
-219.32	70.7523	618
-215.868	70.0654	612
-212.091	69.264	605
-211.828	69.6074	608
-211.899	70.0654	612
-209.888	69.8364	610
-207.202	69.3784	606
-204.533	68.9205	602
-202.556	68.6915	600
-200.924	68.577	599
-199.962	68.6915	600
-200.652	69.3784	606
-203.618	70.8668	619
-201.299	70.5233	616
-194.774	68.6915	600
-191.865	68.1191	595
-190.258	68.0046	594
-191.201	68.806	601
-196.537	71.2102	622
-196.448	71.6682	626
-193.536	71.0957	621
-189.718	70.1798	613
-185.934	69.264	605
-184.016	69.035	603
-183.622	69.3784	606
-183.816	69.9509	611
-183.391	70.2943	614
-183.546	70.8668	619
-182.208	70.8668	619
-179.409	70.2943	614
-178.082	70.2943	614
-177.906	70.7523	618
-177.427	71.0957	621
-174.384	70.4088	615
-171.366	69.7219	609
-170.049	69.7219	609
-169.564	70.0654	612
-167.141	69.6074	608
-165.282	69.3784	606
-163.701	69.264	605
-161.856	69.035	603
-161.352	69.3784	606
-159.513	69.1495	604
-158.47	69.264	605
-158.201	69.7219	609
-156.627	69.6074	608
-155.568	69.7219	609
-154.758	69.9509	611
-156.2	71.2102	622
-156.1	71.7826	627
-152.03	70.5233	616
-150.698	70.5233	616
-148.396	70.0654	612
-146.593	69.8364	610
-144.322	69.3784	606
-143.72	69.7219	609
-144.04	70.5233	616
-145.025	71.6682	626
-144.819	72.2406	631
-143.455	72.2406	631
-142.316	72.3551	632
-140.95	72.3551	632
-138.038	71.5537	625
-135.156	70.7523	618
-132.088	69.8364	610
-129.912	69.3784	606
-130.724	70.5233	616
-129.602	70.6378	617
-126.605	69.7219	609
-124.877	69.4929	607
-125.601	70.6378	617
-124.267	70.6378	617
-122.136	70.1798	613
-120.023	69.7219	609
-118.901	69.8364	610
-117.968	70.0654	612
-116.455	69.9509	611
-115.511	70.1798	613
-115.676	71.0957	621
-113.781	70.7523	618
-111.353	70.0654	612
-110.57	70.4088	615
-109.24	70.4088	615
-108.437	70.7523	618
-106.755	70.5233	616
-105.936	70.8668	619
-104.767	70.9812	620
-103.594	71.0957	621
-101.593	70.6378	617
-99.1216	69.8364	610
-96.841	69.1495	604
-94.5863	68.4626	598
-92.8256	68.1191	595
-91.847	68.3481	597
-91.1632	68.806	601
-89.7145	68.6915	600
-88.1228	68.4626	598
-87.5561	69.035	603
-86.2525	69.035	603
-85.0899	69.1495	604
-83.2294	68.6915	600
-83.8441	70.2943	614
-83.1888	70.8668	619
-82.3796	71.3247	623
-81.0328	71.3247	623
-79.9419	71.5537	625
-78.2136	71.2102	622
-75.2624	69.7219	609
-72.4889	68.3481	597
-71.3176	68.4626	598
-70.6104	69.035	603
-69.9965	69.7219	609
-69.695	70.7523	618
-68.4696	70.8668	619
-66.3724	70.0654	612
-64.1991	69.1495	604
-62.9975	69.264	605
-61.6897	69.264	605
-60.4817	69.3784	606
-59.367	69.6074	608
-58.1481	69.7219	609
-56.5517	69.3784	606
-55.3328	69.4929	607
-54.9996	70.7523	618
-53.5769	70.6378	617
-51.735	69.9509	611
-50.1667	69.6074	608
-48.9327	69.7219	609
-47.4599	69.4929	607
-46.4518	69.9509	611
-45.131	69.9509	611
-43.5951	69.6074	608
-42.2112	69.4929	607
-40.6296	69.035	603
-39.5217	69.3784	606
-38.9053	70.6378	617
-37.9978	71.4392	624
-36.8838	71.8971	628
-35.4697	71.7826	627
-34.0055	71.5537	625
-32.5499	71.3247	623
-30.8525	70.5233	616
-29.4251	70.2943	614
-27.9605	69.9509	611
-26.6833	70.0654	612
-25.4018	70.1798	613
-23.9195	69.7219	609
-22.4917	69.3784	606
-21.2167	69.4929	607
-19.9701	69.7219	609
-18.6842	69.8364	610
-17.3371	69.7219	609
-16.0469	69.8364	610
-14.8007	70.1798	613
-13.4536	70.0654	612
-12.0712	69.7219	609
-10.79	69.9509	611
-9.51569	70.2943	614
-8.2284	70.6378	617
-6.88345	70.5233	616
-5.49776	69.8364	610
-4.15856	69.4929	607
-2.86516	69.9509	611
-1.56204	70.7523	618
-0.227198	71.0957	621
1.11882	71.3247	623
2.4814	71.7826	627
3.8062	71.2102	622
5.11766	70.7523	618
6.43271	70.5233	616
7.72652	70.1798	613
9.02211	69.9509	611
10.326	69.8364	610
11.4728	68.806	601
12.8783	69.3784	606
14.2351	69.6074	608
15.6262	69.9509	611
16.8915	69.7219	609
18.2379	69.8364	610
19.9733	71.3247	623
21.2174	70.9812	620
22.4849	70.7523	618
23.8979	70.9812	620
25.2382	70.9812	620
26.4927	70.7523	618
27.6035	70.1798	613
28.7398	69.7219	609
30.0563	69.7219	609
31.4243	69.8364	610
32.6893	69.7219	609
34.5083	70.7523	618
36.0183	71.0957	621
37.7217	71.7826	627
39.1394	71.8971	628
39.0138	69.264	605
40.3216	69.264	605
41.8359	69.6074	608
43.0083	69.3784	606
44.6108	69.8364	610
45.7789	69.6074	608
47.0932	69.6074	608
48.3279	69.4929	607
49.64	69.4929	607
50.9522	69.4929	607
52.1783	69.3784	606
53.4883	69.3784	606
54.7078	69.264	605
55.9231	69.1495	604
57.0393	68.9205	602
58.2437	68.806	601
59.642	68.9205	602
61.247	69.264	605
62.3481	69.035	603
64.2849	69.7219	609
66.14	70.2943	614
67.3574	70.1798	613
68.5705	70.0654	612
69.6651	69.8364	610
71.2164	70.0654	612
72.5394	70.0654	612
73.621	69.8364	610
74.0797	69.035	603
75.0082	68.6915	600
76.5595	68.9205	602
77.0849	68.2336	596
77.3213	67.3177	588
78.1914	66.9742	585
80.4067	67.7756	592
82.3764	68.3481	597
83.6669	68.3481	597
85.9536	69.1495	604
87.9816	69.7219	609
89.4448	69.8364	610
90.6146	69.7219	609
91.7801	69.6074	608
93.86	70.1798	613
95.0299	70.0654	612
95.5657	69.4929	607
96.7182	69.3784	606
98.19	69.4929	607
100.486	70.1798	613
102.807	70.8668	619
104.65	71.2102	622
105.313	70.7523	618
106.822	70.8668	619
107.286	70.2943	614
108.967	70.5233	616
111.373	71.2102	622
112.899	71.3247	623
114.612	71.5537	625
115.964	71.5537	625
116.939	71.3247	623
118.476	71.4392	624
118.673	70.7523	618
119.62	70.5233	616
121.148	70.6378	617
122.283	70.5233	616
122.812	70.0654	612
123.73	69.8364	610
124.843	69.7219	609
126.781	70.0654	612
128.941	70.5233	616
130.907	70.8668	619
133.314	71.4392	624
134.447	71.3247	623
133.178	69.9509	611
131.857	68.577	599
130.485	67.2032	587
131.305	66.9742	585
134.156	67.7756	592
136.579	68.3481	597
140.641	69.7219	609
143.356	70.4088	615
145.391	70.7523	618
146.965	70.8668	619
148.303	70.8668	619
148.916	70.5233	616
148.784	69.8364	610
148.872	69.264	605
148.691	68.577	599
149.234	68.2336	596
149.007	67.5467	590
150.792	67.7756	592
153.87	68.577	599
155.942	68.9205	602
158.288	69.3784	606
159.071	69.1495	604
160.112	69.035	603
160.344	68.577	599
161.369	68.4626	598
163.478	68.806	601
166.148	69.3784	606
167.735	69.4929	607
167.654	68.9205	602
167.833	68.4626	598
167.712	67.8901	593
169.278	68.0046	594
171.424	68.3481	597
171.557	67.8901	593
171.965	67.5467	590
172.947	67.4322	589
174.811	67.6612	591
176.387	67.7756	592
178.567	68.1191	595
181.667	68.806	601
185.706	69.8364	610
187.944	70.1798	613
189.578	70.2943	614
188.107	69.264	605
186.91	68.3481	597
190.092	69.035	603
191.396	69.035	603
193.658	69.3784	606
195.29	69.4929	607
197.25	69.7219	609
199.218	69.9509	611
200.211	69.8364	610
201.53	69.8364	610
202.516	69.7219	609
203.498	69.6074	608
208.854	70.9812	620
211.551	71.4392	624
213.241	71.5537	625
209.098	69.7219	609
210.415	69.7219	609
209.993	69.1495	604
209.549	68.577	599
209.788	68.2336	596
210.368	68.0046	594
212.365	68.2336	596
215.087	68.6915	600
213.86	67.8901	593
214.416	67.6612	591
214.599	67.3177	588
218.807	68.2336	596
223.05	69.1495	604
224.355	69.1495	604
226.408	69.3784	606
226.967	69.1495	604
226.761	68.6915	600
228.818	68.9205	602
231.266	69.264	605
232.574	69.264	605
236.974	70.1798	613
239.854	70.6378	617
241.188	70.6378	617
242.129	70.5233	616
248.994	72.1261	630
249.958	72.0116	629
238.532	68.3481	597
241.831	68.9205	602
244.748	69.3784	606
245.652	69.264	605
242.062	67.8901	593
241.292	67.3177	588
238.025	66.0583	577
239.272	66.0583	577
242.187	66.5163	581
242.186	66.1728	578
246.384	66.9742	585
250.612	67.7756	592
253.168	68.1191	595
253.599	67.8901	593
253.161	67.4322	589
253.571	67.2032	587
254.839	67.2032	587
257.417	67.5467	590
256.939	67.0887	586
256.884	66.7453	583
258.587	66.8598	584
260.294	66.9742	585
262.453	67.2032	587
265.519	67.6612	591
266.797	67.6612	591
265.806	67.0887	586
264.794	66.5163	581
266.05	66.5163	581
269.146	66.9742	585
270.411	66.9742	585
271.676	66.9742	585
273.407	67.0887	586
274.205	66.9742	585
275.469	66.9742	585
276.734	66.9742	585
277.999	66.9742	585
279.741	67.0887	586
278.13	66.4018	580
278.902	66.2873	579
279.67	66.1728	578
281.892	66.4018	580
288.027	67.5467	590
290.283	67.7756	592
289.593	67.3177	588
290.369	67.2032	587
291.142	67.0887	586
291.909	66.9742	585
293.174	66.9742	585
294.439	66.9742	585
295.198	66.8598	584
296.968	66.9742	585
298.742	67.0887	586
298.985	66.8598	584
297.677	66.2873	579
297.38	65.9439	576
298.625	65.9439	576
301.432	66.2873	579
304.252	66.6308	582
306.56	66.8598	584
308.876	67.0887	586
308.555	66.7453	583
306.627	66.0583	577
309.475	66.4018	580
310.729	66.4018	580
312.521	66.5163	581
315.397	66.8598	584
318.286	67.2032	587
320.644	67.4322	589
319.731	66.9742	585
318.8	66.5163	581
319.505	66.4018	580
322.971	66.8598	584
324.789	66.9742	585
327.168	67.2032	587
329.556	67.4322	589
329.145	67.0887	586
333.794	67.7756	592
333.376	67.4322	589
335.217	67.5467	590
331.93	66.6308	582
327.463	65.4859	572
326.976	65.1425	569
327.629	65.028	568
325.962	64.4556	563
327.76	64.57	564
335.979	65.9439	576
339.566	66.4018	580
344.933	67.2032	587
345.023	66.9742	585
349.247	67.5467	590
350.522	67.5467	590
348.816	66.9742	585
347.687	66.5163	581
346.541	66.0583	577
347.788	66.0583	577
351.455	66.5163	581
352.104	66.4018	580
355.186	66.7453	583
360.114	67.4322	589
363.228	67.7756	592
365.739	68.0046	594
366.406	67.8901	593
364.587	67.3177	588
365.858	67.3177	588
363.383	66.6308	582
363.388	66.4018	580
-472.007	74.6543	640
-466.947	74.0711	635
-461.908	73.4879	630
-459.815	73.3712	629
-458.455	73.3712	629
-457.822	73.4879	630
-456.46	73.4879	630
-452.209	73.0213	626
-453.016	73.3712	629
-454.529	73.8378	633
-453.161	73.8378	633
-456.075	74.5377	639
-460.386	75.4709	647
-461.825	75.9374	651
-459.003	75.7042	649
-457.6	75.7042	649
-455.494	75.5875	648
-451.991	75.2376	645
-436.625	72.9046	625
-438.06	73.3712	629
-441.56	74.1877	636
-439.493	74.0711	635
-438.12	74.0711	635
-431.245	73.1379	627
-423.033	71.9714	617
-415.548	70.9216	608
-414.234	70.9216	608
-416.995	71.6215	614
-421.083	72.5547	622
-419.739	72.5547	622
-424.448	73.6045	631
-425.766	74.0711	635
-422.388	73.7212	632
-419.023	73.3712	629
-415.672	73.0213	626
-412.995	72.788	624
-411.646	72.788	624
-410.297	72.788	624
-411.57	73.2546	628
-410.865	73.3712	629
-410.808	73.6045	631
-410.092	73.7212	632
-409.373	73.8378	633
-408.649	73.9544	634
-408.563	74.1877	636
-404.628	73.7212	632
-403.261	73.7212	632
-402.531	73.8378	633
-400.529	73.7212	632
-399.163	73.7212	632
-395.908	73.3712	629
-395.803	73.6045	631
-396.314	73.9544	634
-398.681	74.6543	640
-396.677	74.5377	639
-399.008	75.2376	645
-396.997	75.1209	644
-390.69	74.1877	636
-389.315	74.1877	636
-383.671	73.3712	629
-379.272	72.788	624
-378.529	72.9046	625
-377.781	73.0213	626
-377.029	73.1379	627
-375.674	73.1379	627
-375.512	73.3712	629
-374.153	73.3712	629
-373.386	73.4879	630
-373.205	73.7212	632
-372.427	73.8378	633
-377.507	75.1209	644
-381.955	76.2874	654
-378.214	75.8208	650
-371.591	74.771	641
-365.585	73.8378	633
-364.217	73.8378	633
-361.702	73.6045	631
-360.909	73.7212	632
-361.818	74.1877	636
-358.743	73.8378	633
-353.988	73.1379	627
-351.507	72.9046	625
-352.397	73.3712	629
-356.06	74.421	638
-347.454	72.9046	625
-345.549	72.788	624
-341.994	72.3214	620
-340.654	72.3214	620
-336.03	71.6215	614
-333.067	71.2716	611
-330.117	70.9216	608
-327.722	70.6883	606
-326.412	70.6883	606
-327.247	71.1549	610
-330.738	72.2047	619
-334.721	73.3712	629
-336.011	73.9544	634
-333.057	73.6045	631
-326.962	72.5547	622
-321.43	71.6215	614
-318.017	71.1549	610
-317.737	71.3882	612
-316.414	71.3882	612
-317.15	71.8548	616
-317.869	72.3214	620
-318.061	72.6713	623
-317.222	72.788	624
-313.342	72.2047	619
-310.492	71.8548	616
-307.655	71.5049	613
-308.328	71.9714	617
-306	71.7381	615
-302.193	71.1549	610
-300.381	71.0383	609
-296.609	70.455	604
-292.37	69.7551	598
-289.617	69.4052	595
-289.3	69.6385	597
-289.457	69.9884	600
-290.561	70.5717	605
-290.688	70.9216	608
-287.47	70.455	604
-283.321	69.7551	598
-281.085	69.5218	596
-281.675	69.9884	600
-285.051	71.1549	610
-285.128	71.5049	613
-284.265	71.6215	614
-282.016	71.3882	612
-279.776	71.1549	610
-278.914	71.2716	611
-277.593	71.2716	611
-279.89	72.2047	619
-277.202	71.8548	616
-274.526	71.5049	613
-271.419	71.0383	609
-269.659	70.9216	608
-265.696	70.2217	602
-265.712	70.5717	605
-266.153	71.0383	609
-266.141	71.3882	612
-266.116	71.7381	615
-262.203	71.0383	609
-257.031	69.9884	600
-254.456	69.6385	597
-253.165	69.6385	597
-259.047	71.6215	614
-260.238	72.3214	620
-259.733	72.5547	622
-252.157	70.805	607
-247.126	69.7551	598
-245.011	69.5218	596
-245.358	69.9884	600
-247.315	70.9216	608
-249.642	71.9714	617
-249.918	72.438	621
-246.174	71.7381	615
-244.845	71.7381	615
-242.327	71.3882	612
-239.035	70.805	607
-240.856	71.7381	615
-241.474	72.3214	620
-240.521	72.438	621
-237.638	71.9714	617
-234.39	71.3882	612
-231.162	70.805	607
-229.093	70.5717	605
-227.032	70.3384	603
-224.606	69.9884	600
-222.564	69.7551	598
-222.011	69.9884	600
-221.818	70.3384	603
-222.709	71.0383	609
-223.937	71.8548	616
-223.328	72.0881	618
-223.429	72.5547	622
-220.656	72.0881	618
-216.836	71.2716	611
-212.341	70.2217	602
-209.637	69.7551	598
-207.648	69.5218	596
-207.744	69.9884	600
-205.415	69.6385	597
-204.124	69.6385	597
-202.494	69.5218	596
-201.543	69.6385	597
-198.24	68.9386	591
-196.963	68.9386	591
-196.347	69.1719	593
-194.736	69.0553	592
-192.476	68.7053	589
-190.229	68.3554	586
-188.317	68.1221	584
-187.696	68.3554	586
-187.701	68.822	590
-188.954	69.7551	598
-193.937	72.0881	618
-191.043	71.5049	613
-187.242	70.5717	605
-184.09	69.8718	599
-182.795	69.8718	599
-181.804	69.9884	600
-181.71	70.455	604
-180.404	70.455	604
-178.506	70.2217	602
-176.615	69.9884	600
-173.273	69.1719	593
-172.281	69.2886	594
-173.588	70.3384	603
-175.142	71.5049	613
-173.816	71.5049	613
-170.803	70.805	607
-168.653	70.455	604
-167.902	70.6883	606
-165.492	70.2217	602
-162.827	69.6385	597
-160.183	69.0553	592
-158.904	69.0553	592
-159.754	69.9884	600
-158.721	70.1051	601
-157.684	70.2217	602
-156.123	70.1051	601
-152.763	69.1719	593
-148.671	67.8888	582
-149.946	69.0553	592
-149.419	69.4052	595
-150.125	70.3384	603
-149.562	70.6883	606
-147.518	70.3384	603
-146.457	70.455	604
-144.67	70.2217	602
-141.94	69.5218	596
-140.652	69.5218	596
-141.468	70.5717	605
-142.708	71.8548	616
-142.754	72.5547	622
-141.637	72.6713	623
-139.839	72.438	621
-137.828	72.0881	618
-134.946	71.2716	611
-132.094	70.455	604
-129.489	69.7551	598
-126.91	69.0553	592
-125.418	68.9386	591
-124.771	69.2886	594
-123.279	69.1719	593
-122.82	69.6385	597
-123.158	70.5717	605
-122.454	70.9216	608
-120.144	70.3384	603
-116.87	69.1719	593
-115.588	69.1719	593
-114.691	69.4052	595
-114.358	69.9884	600
-114.003	70.5717	605
-113.068	70.805	607
-111.572	70.6883	606
-109.898	70.455	604
-109.311	70.9216	608
-108.175	71.0383	609
-107.034	71.1549	610
-105.542	71.0383	609
-103.712	70.6883	606
-102.233	70.5717	605
-101.759	71.1549	610
-100.111	70.9216	608
-97.6592	70.1051	601
-95.398	69.4052	595
-92.6882	68.3554	586
-91.2655	68.2387	585
-90.0009	68.2387	585
-87.9778	67.6555	580
-87.9202	68.5887	588
-86.9439	68.822	590
-86.3945	69.4052	595
-85.3943	69.6385	597
-83.5403	69.1719	593
-81.0099	68.1221	584
-78.9282	67.4222	578
-79.9633	69.4052	595
-79.0738	69.7551	598
-77.0007	69.0553	592
-75.2093	68.5887	588
-73.9382	68.5887	588
-72.6672	68.5887	588
-70.1819	67.4222	578
-68.5746	67.0723	575
-68.1513	67.8888	582
-67.8127	68.822	590
-67.7778	70.1051	601
-67.4741	71.1549	610
-65.7217	70.6883	606
-63.2425	69.4052	595
-61.5398	68.9386	591
-60.1602	68.822	590
-59.284	69.2886	594
-58.2929	69.6385	597
-57.0023	69.6385	597
-55.8051	69.7551	598
-54.4213	69.6385	597
-52.7747	69.1719	593
-51.0587	68.5887	588
-51.227	70.5717	605
-49.5891	70.1051	601
-48.2096	69.9884	600
-46.9126	69.9884	600
-45.8436	70.3384	603
-44.3924	70.1051	601
-43.1649	70.2217	602
-41.5158	69.6385	597
-39.821	68.9386	591
-38.2826	68.472	587
-37.1397	68.7053	589
-36.4754	69.8718	599
-35.6504	70.805	607
-34.2817	70.6883	606
-32.9717	70.6883	606
-31.296	69.8718	599
-29.951	69.7551	598
-28.8979	70.3384	603
-27.8232	70.9216	608
-26.6397	71.2716	611
-25.2775	71.1549	610
-23.7624	70.5717	605
-22.3061	70.1051	601
-20.972	69.9884	600
-19.7733	70.3384	603
-18.4086	70.1051	601
-17.024	69.7551	598
-15.7839	69.9884	600
-14.4868	69.9884	600
-13.2118	70.1051	601
-11.8928	69.9884	600
-10.5604	69.7551	598
-9.39171	70.6883	606
-8.12171	71.0383	609
-6.78288	70.805	607
-5.42566	70.2217	602
-4.11745	70.1051	601
-2.81357	69.9884	600
-1.52665	70.455	604
-0.22171	70.6883	606
1.0847	70.455	604
2.3785	70.1051	601
3.65321	69.6385	597
4.93548	69.5218	596
6.22386	69.5218	596
7.53745	69.7551	598
8.80062	69.5218	596
10.089	69.5218	596
11.3583	69.4052	595
12.602	69.1719	593
14.0244	69.8718	599
15.2937	69.7551	598
16.4754	69.2886	594
17.7894	69.4052	595
19.1718	69.7551	598
20.7041	70.5717	605
21.6481	69.4052	595
22.8957	69.2886	594
24.0984	69.0553	592
25.421	69.1719	593
26.9731	69.8718	599
28.4095	70.2217	602
29.6615	70.1051	601
31.0637	70.3384	603
32.3136	70.2217	602
33.4474	69.8718	599
34.8583	70.1051	601
36.5184	70.805	607
37.2074	69.6385	597
38.1755	69.0553	592
39.3886	68.9386	591
40.5285	68.7053	589
42.2986	69.5218	596
43.6601	69.6385	597
45.1765	69.9884	600
46.0088	69.2886	594
45.0636	66.0224	566
46.5324	66.3724	569
48.6858	67.6555	580
50.6284	68.5887	588
52.076	68.822	590
53.0802	68.472	587
54.3491	68.472	587
55.8075	68.7053	589
57.7591	69.5218	596
59.2457	69.7551	598
60.3359	69.5218	596
60.4869	68.2387	585
61.0126	67.4222	578
62.4775	67.6555	580
64.5005	68.472	587
67.0019	69.7551	598
68.2946	69.7551	598
69.1218	69.2886	594
69.6947	68.5887	588
70.8451	68.472	587
71.6227	68.0054	583
73.258	68.3554	586
74.3976	68.2387	585
75.1448	67.7721	581
75.7433	67.1889	576
76.4538	66.7223	572
77.9619	66.9556	574
80.4446	68.0054	583
82.4056	68.5887	588
84.3882	69.1719	593
85.5257	69.0553	592
86.6588	68.9386	591
88.6803	69.5218	596
90.2706	69.7551	598
91.4102	69.6385	597
92.7007	69.6385	597
93.9913	69.6385	597
94.6434	69.1719	593
95.44	68.822	590
96.0597	68.3554	586
98.1569	68.9386	591
99.9393	69.2886	594
102.416	70.1051	601
103.37	69.8718	599
102.918	68.7053	589
103.66	68.3554	586
105.106	68.472	587
107.462	69.1719	593
110.395	70.2217	602
111.139	69.8718	599
111.683	69.4052	595
112.02	68.822	590
113.488	68.9386	591
115.154	69.1719	593
116.239	69.0553	592
117.519	69.0553	592
118.999	69.1719	593
120.89	69.5218	596
122.998	69.9884	600
125.745	70.805	607
128.104	71.3882	612
129.216	71.2716	611
130.536	71.2716	611
130.778	70.6883	606
130.127	69.6385	597
129.656	68.7053	589
129.373	67.8888	582
130.407	67.7721	581
132.343	68.1221	584
134.291	68.472	587
136.715	69.0553	592
139.16	69.6385	597
142.803	70.805	607
144.353	70.9216	608
144.949	70.5717	605
144.322	69.6385	597
145.125	69.4052	595
145.181	68.822	590
145.215	68.2387	585
146.73	68.3554	586
148.502	68.5887	588
150.028	68.7053	589
152.072	69.0553	592
153.352	69.0553	592
154.893	69.1719	593
155.648	68.9386	591
156.129	68.5887	588
157.4	68.5887	588
159.48	68.9386	591
160.214	68.7053	589
161.487	68.7053	589
164.419	69.4052	595
163.755	68.5887	588
163.904	68.1221	584
165.166	68.1221	584
166.429	68.1221	584
167.691	68.1221	584
168.375	67.8888	582
169.924	68.0054	583
171.185	68.0054	583
174.22	68.7053	589
176.089	68.9386	591
177.367	68.9386	591
178.946	69.0553	592
180.226	69.0553	592
182.732	69.5218	596
183.403	69.2886	594
182.511	68.472	587
181.588	67.6555	580
181.266	67.0723	575
182.509	67.0723	575
186.628	68.1221	584
190.464	69.0553	592
193.687	69.7551	598
195.958	70.1051	601
195.944	69.6385	597
196.904	69.5218	596
197.528	69.2886	594
198.477	69.1719	593
200.433	69.4052	595
202.397	69.6385	597
203.346	69.5218	596
205.665	69.8718	599
207.305	69.9884	600
208.254	69.8718	599
208.5	69.5218	596
208.028	68.9386	591
208.952	68.822	590
210.94	69.0553	592
212.578	69.1719	593
212.778	68.822	590
210.063	67.5388	579
209.854	67.0723	575
215.87	68.5887	588
219.357	69.2886	594
222.127	69.7551	598
224.54	70.1051	601
223.96	69.5218	596
224.115	69.1719	593
225.397	69.1719	593
226.297	69.0553	592
227.961	69.1719	593
230.402	69.5218	596
230.913	69.2886	594
228.288	68.1221	584
228.765	67.8888	582
228.047	67.3055	577
228.896	67.1889	576
230.541	67.3055	577
233.797	67.8888	582
235.055	67.8888	582
236.719	68.0054	583
237.163	67.7721	581
235.957	67.0723	575
234.312	66.2557	568
235.955	66.3724	569
238.852	66.839	573
240.929	67.0723	575
242.172	67.0723	575
244.685	67.4222	578
246.785	67.6555	580
248.467	67.7721	581
248.863	67.5388	579
249.683	67.4222	578
249.63	67.0723	575
250.437	66.9556	574
250.8	66.7223	572
250.274	66.2557	568
251.059	66.1391	567
254.955	66.839	573
256.194	66.839	573
259.229	67.3055	577
262.282	67.7721	581
261.27	67.1889	576
261.148	66.839	573
262.387	66.839	573
263.626	66.839	573
264.402	66.7223	572
267.032	67.0723	575
265.475	66.3724	569
263.893	65.6725	563
264.168	65.4392	561
267.273	65.9058	565
276.098	67.7721	581
277.354	67.7721	581
277.651	67.5388	579
276.976	67.0723	575
275.799	66.489	570
277.517	66.6057	571
279.728	66.839	573
284.89	67.7721	581
288.116	68.2387	585
287.401	67.7721	581
288.161	67.6555	580
288.915	67.5388	579
288.664	67.1889	576
286.889	66.489	570
287.616	66.3724	569
287.83	66.1391	567
292.115	66.839	573
293.353	66.839	573
292.536	66.3724	569
291.184	65.7891	564
291.885	65.6725	563
296.226	66.3724	569
300.592	67.0723	575
306.035	68.0054	583
309.93	68.5887	588
309.085	68.1221	584
305.033	66.9556	574
302.005	66.0224	566
300.014	65.3225	560
302.838	65.6725	563
306.756	66.2557	568
312.864	67.3055	577
316.288	67.7721	581
316.451	67.5388	579
317.703	67.5388	579
320.607	67.8888	582
321.312	67.7721	581
322.013	67.6555	580
323.267	67.6555	580
320.604	66.839	573
328.021	68.1221	584
326.464	67.5388	579
324.886	66.9556	574
325.559	66.839	573
327.938	67.0723	575
328.036	66.839	573
326.401	66.2557	568
323.592	65.4392	561
323.646	65.2059	559
324.855	65.2059	559
324.897	64.9726	557
329.613	65.6725	563
333.768	66.2557	568
335.586	66.3724	569
337.408	66.489	570
339.828	66.7223	572
339.872	66.489	570
341.105	66.489	570
341.136	66.2557	568
339.35	65.6725	563
338.752	65.3225	560
338.748	65.0892	558
339.955	65.0892	558
344.218	65.6725	563
351.571	66.839	573
358.351	67.8888	582
360.845	68.1221	584
359.627	67.6555	580
360.881	67.6555	580
360.886	67.4222	578
361.509	67.3055	577
-464.632	74.8496	630
-458.858	74.1367	624
-453.843	73.5427	619
-448.85	72.9487	614
-447.522	72.9487	614
-445.468	72.8299	613
-444.143	72.8299	613
-441.373	72.5922	611
-442.933	73.0675	615
-443.04	73.3051	617
-441.706	73.3051	617
-443.941	73.8991	622
-448.289	74.8496	630
-451.893	75.6813	637
-448.394	75.3248	634
-444.909	74.9684	631
-443.545	74.9684	631
-435.874	73.8991	622
-426.844	72.5922	611
-425.524	72.5922	611
-426.286	72.9487	614
-427.035	73.3051	617
-425.701	73.3051	617
-420.928	72.711	612
-413.435	71.6418	603
-408.714	71.0477	598
-407.421	71.0477	598
-411.561	71.9982	606
-414.99	72.8299	613
-413.665	72.8299	613
-415.031	73.3051	617
-416.379	73.7803	621
-413.7	73.5427	619
-410.363	73.1863	616
-409.032	73.1863	616
-408.362	73.3051	617
-407.688	73.4239	618
-406.352	73.4239	618
-406.982	73.7803	621
-401.067	72.9487	614
-398.438	72.711	612
-401.008	73.4239	618
-400.319	73.5427	619
-399.625	73.6615	620
-398.285	73.6615	620
-392.463	72.8299	613
-391.138	72.8299	613
-389.177	72.711	612
-390.389	73.1863	616
-390.952	73.5427	619
-390.243	73.6615	620
-388.276	73.5427	619
-387.563	73.6615	620
-384.354	73.3051	617
-383.641	73.4239	618
-384.779	73.8991	622
-384.051	74.0179	623
-382.704	74.0179	623
-381.358	74.0179	623
-377.571	73.5427	619
-377.449	73.7803	621
-375.501	73.6615	620
-375.367	73.8991	622
-372.82	73.6615	620
-371.48	73.6615	620
-371.333	73.8991	622
-368.799	73.6615	620
-367.459	73.6615	620
-367.3	73.8991	622
-368.309	74.3744	626
-369.886	74.9684	631
-369.106	75.0872	632
-370.649	75.6813	637
-366.374	75.0872	632
-362.697	74.612	628
-361.34	74.612	628
-355.397	73.6615	620
-353.485	73.5427	619
-347.596	72.5922	611
-346.842	72.711	612
-341.002	71.7606	604
-340.822	71.9982	606
-341.753	72.4734	610
-343.782	73.1863	616
-343.563	73.4239	618
-341.673	73.3051	617
-338.684	72.9487	614
-337.906	73.0675	615
-333.293	72.3546	609
-329.251	71.7606	604
-320.887	70.2161	591
-317.446	69.7408	587
-315.1	69.5032	585
-317.054	70.2161	591
-322.723	71.7606	604
-325.142	72.5922	611
-329.651	73.8991	622
-326.195	73.4239	618
-318.026	71.8794	605
-314.101	71.2853	600
-311.761	71.0477	598
-311.506	71.2853	600
-309.175	71.0477	598
-309.427	71.4041	601
-310.692	71.9982	606
-310.403	72.2358	608
-307.563	71.8794	605
-305.749	71.7606	604
-306.46	72.2358	608
-305.647	72.3546	609
-303.331	72.117	607
-299.531	71.523	602
-291.294	69.8596	588
-289.53	69.7408	587
-287.279	69.5032	585
-283.081	68.7904	579
-283.289	69.1468	582
-284.454	69.7408	587
-285.598	70.3349	592
-286.719	70.9289	597
-285.429	70.9289	597
-281.282	70.2161	591
-279.057	69.9784	589
-278.727	70.2161	591
-277.919	70.3349	592
-278.509	70.8101	596
-278.616	71.1665	599
-279.636	71.7606	604
-278.791	71.8794	605
-275.648	71.4041	601
-275.719	71.7606	604
-273.05	71.4041	601
-269.49	70.8101	596
-271.352	71.6418	603
-269.152	71.4041	601
-265.625	70.8101	596
-262.119	70.2161	591
-260.4	70.0973	590
-259.124	70.0973	590
-259.16	70.4537	593
-259.618	70.9289	597
-259.193	71.1665	599
-257.037	70.9289	597
-253.604	70.3349	592
-250.193	69.7408	587
-249.348	69.8596	588
-250.609	70.5725	594
-251.843	71.2853	600
-250.546	71.2853	600
-243.018	69.5032	585
-238.86	68.6715	578
-234.322	67.7211	570
-238.815	69.3844	584
-238.773	69.7408	587
-239.122	70.2161	591
-240.662	71.0477	598
-240.97	71.523	602
-238.475	71.1665	599
-236.784	71.0477	598
-233.522	70.4537	593
-231.849	70.3349	592
-232.906	71.0477	598
-233.55	71.6418	603
-232.246	71.6418	603
-229.794	71.2853	600
-229.258	71.523	602
-226.442	71.0477	598
-223.644	70.5725	594
-220.488	69.9784	589
-218.47	69.7408	587
-217.941	69.9784	589
-219.611	70.9289	597
-220.514	71.6418	603
-220.302	71.9982	606
-220.437	72.4734	610
-215.167	71.1665	599
-214.586	71.4041	601
-212.222	71.0477	598
-208.461	70.2161	591
-205.43	69.622	586
-205.209	69.9784	589
-205.667	70.5725	594
-203.694	70.3349	592
-202.073	70.2161	591
-200.456	70.0973	590
-198.842	69.9784	589
-196.228	69.5032	585
-194.963	69.5032	585
-194.361	69.7408	587
-192.763	69.622	586
-190.516	69.2656	583
-187.957	68.7904	579
-186.06	68.5527	577
-184.172	68.3151	575
-183.566	68.5527	577
-184.53	69.3844	584
-187.033	70.8101	596
-187.927	71.6418	603
-185.695	71.2853	600
-182.554	70.5725	594
-181.27	70.5725	594
-180.895	70.9289	597
-179.303	70.8101	596
-178.015	70.8101	596
-175.244	70.2161	591
-172.494	69.622	586
-170.059	69.1468	582
-169.091	69.2656	583
-169.558	69.9784	589
-169.713	70.5725	594
-171.832	71.9982	606
-170.522	71.9982	606
-168.374	71.6418	603
-165.962	71.1665	599
-163.568	70.6913	595
-160.645	69.9784	589
-157.478	69.1468	582
-156.22	69.1468	582
-154.695	69.028	581
-152.911	68.7904	579
-150.874	68.4339	576
-150.148	68.6715	578
-148.126	68.3151	575
-147.905	68.7904	579
-146.146	68.5527	577
-144.146	68.1963	574
-147.884	70.5725	594
-147.094	70.8101	596
-145.071	70.4537	593
-144.274	70.6913	595
-142.508	70.4537	593
-141.464	70.5725	594
-138.764	69.8596	588
-138.896	70.5725	594
-139.697	71.6418	603
-140	72.4734	610
-137.772	71.9982	606
-135.336	71.4041	601
-133.59	71.1665	599
-132.075	71.0477	598
-129.251	70.2161	591
-127.324	69.8596	588
-125.195	69.3844	584
-122.023	68.3151	575
-119.1	67.3646	567
-117.874	67.3646	567
-117.883	68.0775	573
-117.662	68.6715	578
-118.225	69.7408	587
-116.757	69.622	586
-115.884	69.8596	588
-114.028	69.5032	585
-112.764	69.5032	585
-111.88	69.7408	587
-111.742	70.4537	593
-110.274	70.3349	592
-108.994	70.3349	592
-108.26	70.6913	595
-107.513	71.0477	598
-106.576	71.2853	600
-105.103	71.1665	599
-103.462	70.9289	597
-102	70.8101	596
-100.712	70.8101	596
-99.7571	71.0477	598
-98.2997	70.9289	597
-96.6842	70.6913	595
-94.436	69.9784	589
-92.2137	69.2656	583
-89.0813	67.8399	571
-87.3854	67.4835	568
-86.461	67.7211	570
-85.6774	68.0775	573
-85.0281	68.5527	577
-84.3616	69.028	581
-84.25	69.9784	589
-82.1315	69.2656	583
-79.2066	67.8399	571
-77.0164	67.0082	564
-75.7972	67.0082	564
-75.6358	67.9587	572
-74.2693	67.8399	571
-71.3721	66.2954	558
-69.9144	66.0577	556
-68.8361	66.1766	557
-68.2391	66.7706	562
-67.859	67.6023	569
-67.9171	68.9092	580
-67.238	69.5032	585
-66.8756	70.4537	593
-64.4876	69.2656	583
-62.5766	68.5527	577
-60.7978	67.9587	572
-59.8737	68.3151	575
-59.2425	69.028	581
-58.3858	69.5032	585
-57.3165	69.7408	587
-56.143	69.8596	588
-54.4986	69.3844	584
-52.9627	69.028	581
-50.9948	68.0775	573
-49.5825	67.8399	571
-48.5175	68.0775	573
-47.4438	68.3151	575
-46.1205	68.1963	574
-46.3652	70.4537	593
-45.0073	70.3349	592
-43.8753	70.5725	594
-42.4478	70.3349	592
-40.89	69.8596	588
-39.3493	69.3844	584
-37.8913	69.028	581
-36.7614	69.2656	583
-35.8665	69.9784	589
-35.0044	70.8101	596
-33.8291	71.0477	598
-32.3732	70.6913	595
-31.0347	70.5725	594
-29.7006	70.4537	593
-28.6583	71.0477	598
-27.5944	71.6418	603
-26.4653	72.117	607
-24.9459	71.523	602
-23.2911	70.4537	593
-21.8607	69.9784	589
-20.5875	69.9784	589
-19.347	70.0973	590
-18.041	69.9784	589
-16.6539	69.5032	585
-15.3367	69.2656	583
-14.173	69.7408	587
-12.948	69.9784	589
-11.6946	70.0973	590
-10.4368	70.2161	591
-9.25222	70.9289	597
-8.01503	71.4041	601
-6.71583	71.4041	601
-5.39862	71.1665	599
-4.0832	70.8101	596
-2.77606	70.3349	592
-1.49885	70.4537	593
-0.218052	70.8101	596
1.06853	70.6913	595
2.33892	70.2161	591
3.59202	69.7408	587
4.86095	69.7408	587
6.15076	69.9784	589
7.47443	70.4537	593
8.74156	70.3349	592
9.93665	69.7408	587
11.1674	69.5032	585
12.5383	70.0973	590
13.9073	70.5725	594
15.1658	70.4537	593
16.3645	70.0973	590
17.5502	69.7408	587
18.755	69.5032	585
20.1223	69.8596	588
21.357	69.7408	587
22.6645	69.8596	588
23.732	69.2656	583
24.9923	69.2656	583
26.2976	69.3844	584
27.6072	69.5032	585
28.8718	69.5032	585
30.2395	69.7408	587
31.7231	70.2161	591
32.9449	70.0973	590
34.3363	70.3349	592
35.3754	69.8596	588
36.2102	69.028	581
37.4661	69.028	581
38.5888	68.7904	579
39.978	69.028	581
41.163	68.9092	580
40.8079	66.2954	558
41.7883	65.9389	555
43.0655	66.0577	556
44.5062	66.4142	559
46.1235	67.0082	564
48.1821	68.1963	574
50.0257	69.028	581
51.5464	69.3844	584
52.0855	68.4339	576
52.5899	67.4835	568
53.723	67.3646	567
55.5302	68.0775	573
57.0661	68.4339	576
58.3112	68.4339	576
59.5564	68.4339	576
60.6959	68.3151	575
62.0467	68.4339	576
63.7313	68.9092	580
65.4333	69.3844	584
66.8099	69.5032	585
67.0272	68.4339	576
67.2056	67.3646	567
68.552	67.4835	568
70.6398	68.3151	575
72.2579	68.6715	578
73.6345	68.7904	579
74.6275	68.5527	577
75.2173	67.9587	572
75.7855	67.3646	567
77.5545	67.8399	571
79.7547	68.6715	578
80.864	68.5527	577
82.3959	68.7904	579
83.6476	68.7904	579
84.8992	68.7904	579
86.1508	68.7904	579
87.5534	68.9092	580
88.3479	68.5527	577
88.8188	67.9587	572
90.0553	67.9587	572
90.9726	67.7211	570
92.2048	67.7211	570
93.9287	68.0775	573
95.6656	68.4339	576
97.5838	68.9092	580
99.6896	69.5032	585
100.609	69.2656	583
100.646	68.4339	576
102.068	68.5527	577
104.032	69.028	581
105.469	69.1468	582
107.461	69.622	586
108.727	69.622	586
108.493	68.6715	578
109.742	68.6715	578
110.607	68.4339	576
112.435	68.7904	579
113.883	68.9092	580
114.938	68.7904	579
115.187	68.1963	574
115.819	67.8399	571
117.463	68.0775	573
119.531	68.5527	577
121.197	68.7904	579
122.66	68.9092	580
124.341	69.1468	582
126.246	69.5032	585
128.165	69.8596	588
129.216	69.7408	587
128.484	68.6715	578
129.06	68.3151	575
130.756	68.5527	577
132.232	68.6715	578
133.713	68.7904	579
135.664	69.1468	582
138.569	69.9784	589
139.842	69.9784	589
140.157	69.5032	585
140.696	69.1468	582
139.515	67.9587	572
141.244	68.1963	574
142.237	68.0775	573
144.978	68.7904	579
146.482	68.9092	580
147.736	68.9092	580
149.503	69.1468	582
151.02	69.2656	583
150.452	68.4339	576
151.434	68.3151	575
152.677	68.3151	575
153.92	68.3151	575
155.703	68.5527	577
156.95	68.5527	577
157.375	68.1963	574
159.721	68.6715	578
162.084	69.1468	582
162.781	68.9092	580
163.186	68.5527	577
164.434	68.5527	577
165.681	68.5527	577
166.639	68.4339	576
166.427	67.8399	571
167.074	67.6023	569
173.332	69.622	586
175.791	70.0973	590
176.166	69.7408	587
175.017	68.7904	579
176.573	68.9092	580
177.213	68.6715	578
178.154	68.5527	577
179.401	68.5527	577
179.083	67.9587	572
179.059	67.4835	568
180.287	67.4835	568
182.473	67.8399	571
185.316	68.4339	576
187.209	68.6715	578
188.459	68.6715	578
189.708	68.6715	578
190.958	68.6715	578
192.207	68.6715	578
191.448	67.9587	572
192.011	67.7211	570
195.277	68.4339	576
198.911	69.2656	583
202.231	69.9784	589
203.85	70.0973	590
205.125	70.0973	590
205.002	69.622	586
205.564	69.3844	584
206.827	69.3844	584
208.446	69.5032	585
210.069	69.622	586
209.172	68.9092	580
207.16	67.8399	571
206.57	67.2458	566
212.933	68.9092	580
216.402	69.622	586
218.784	69.9784	589
220.43	70.0973	590
219.827	69.5032	585
222.225	69.8596	588
221.976	69.3844	584
223.621	69.5032	585
224.501	69.3844	584
226.537	69.622	586
221.583	67.7211	570
220.079	66.8894	563
218.938	66.1766	557
221.328	66.533	560
224.923	67.2458	566
227.744	67.7211	570
228.976	67.7211	570
230.613	67.8399	571
231.847	67.8399	571
232.265	67.6023	569
231.853	67.127	565
232.25	66.8894	563
233.881	67.0082	564
235.934	67.2458	566
237.996	67.4835	568
239.224	67.4835	568
238.758	67.0082	564
239.126	66.7706	562
240.341	66.7706	562
242.846	67.127	565
246.659	67.8399	571
246.157	67.3646	567
245.637	66.8894	563
245.977	66.6518	561
246.749	66.533	560
248.846	66.7706	562
248.726	66.4142	559
253.511	67.3646	567
254.737	67.3646	567
257.317	67.7211	570
257.188	67.3646	567
257.046	67.0082	564
257.808	66.8894	563
259.485	67.0082	564
260.704	67.0082	564
261.459	66.8894	563
259.41	66.0577	556
259.674	65.8201	554
261.343	65.9389	555
262.543	65.9389	555
266.118	66.533	560
271.625	67.6023	569
273.814	67.8399	571
272.64	67.2458	566
273.38	67.127	565
274.601	67.127	565
275.334	67.0082	564
276.063	66.8894	563
278.265	67.127	565
279.981	67.2458	566
280.708	67.127	565
282.927	67.3646	567
284.153	67.3646	567
283.869	67.0082	564
282.561	66.4142	559
282.754	66.1766	557
287.527	67.0082	564
289.258	67.127	565
289.451	66.8894	563
288.603	66.4142	559
289.293	66.2954	558
292.581	66.7706	562
298.501	67.8399	571
302.885	68.5527	577
308.349	69.5032	585
311.731	69.9784	589
308.221	68.9092	580
302.539	67.3646	567
300.014	66.533	560
297.459	65.7013	553
297.035	65.3449	550
299.308	65.5825	552
301.046	65.7013	553
302.241	65.7013	553
305.083	66.0577	556
312.344	67.3646	567
315.229	67.7211	570
305.912	65.4637	551
304.874	64.9885	547
310.533	65.9389	555
311.171	65.8201	554
310.677	65.4637	551
307.906	64.632	544
310.218	64.8697	546
314.82	65.5825	552
322.311	66.8894	563
325.252	67.2458	566
325.899	67.127	565
327.12	67.127	565
328.342	67.127	565
331.313	67.4835	568
332.541	67.4835	568
332.593	67.2458	566
332.637	67.0082	564
332.673	66.7706	562
332.699	66.533	560
335.699	66.8894	563
336.916	66.8894	563
335.73	66.4142	559
335.13	66.0577	556
334.518	65.7013	553
334.499	65.4637	551
335.081	65.3449	550
338.715	65.8201	554
342.367	66.2954	558
346.036	66.7706	562
357.137	68.6715	578
357.767	68.5527	577
359.014	68.5527	577
355.891	67.7211	570
351.484	66.6518	561
-454.307	74.5178	616
-447.827	73.671	609
-442.845	73.0661	604
-439.346	72.7032	601
-438.047	72.7032	601
-433.841	72.2193	597
-433.275	72.3403	598
-433.427	72.5822	600
-435.011	73.0661	604
-432.987	72.9452	603
-431.684	72.9452	603
-433.235	73.429	607
-438.327	74.5178	616
-440.543	75.1226	621
-438.493	75.0016	620
-432.922	74.2758	614
-431.595	74.2758	614
-428.165	73.9129	611
-414.968	71.8564	594
-414.381	71.9774	595
-412.4	71.8564	594
-414.577	72.4613	599
-413.282	72.4613	599
-409.924	72.0984	596
-403.836	71.2516	589
-403.929	71.4935	591
-408.784	72.5822	600
-414.278	73.7919	610
-415.667	74.2758	614
-414.34	74.2758	614
-415.031	74.6387	617
-413.697	74.6387	617
-405.68	73.429	607
-400.371	72.7032	601
-405.048	73.7919	610
-405.053	74.0339	612
-405.049	74.2758	614
-403.722	74.2758	614
-399.773	73.7919	610
-395.841	73.3081	606
-392.578	72.9452	603
-393.221	73.3081	606
-392.558	73.429	607
-391.891	73.55	608
-389.291	73.3081	606
-387.341	73.1871	605
-386.033	73.1871	605
-384.09	73.0661	604
-384.051	73.3081	606
-382.741	73.3081	606
-378.914	72.8242	602
-373.849	72.0984	596
-372.56	72.0984	596
-373.764	72.5822	600
-374.95	73.0661	604
-373.644	73.0661	604
-371.722	72.9452	603
-370.419	72.9452	603
-369.115	72.9452	603
-370.251	73.429	607
-370.763	73.7919	610
-368.838	73.671	609
-364.505	73.0661	604
-368.009	74.0339	612
-368.484	74.3968	615
-367.154	74.3968	615
-365.825	74.3968	615
-362.125	73.9129	611
-361.985	74.1549	613
-362.425	74.5178	616
-363.438	75.0016	620
-359.762	74.5178	616
-354.357	73.671	609
-353.62	73.7919	610
-355.767	74.5178	616
-354.435	74.5178	616
-349.664	73.7919	610
-336.925	71.3725	590
-337.925	71.8564	594
-337.207	71.9774	595
-336.486	72.0984	596
-334.073	71.8564	594
-333.909	72.0984	596
-334.853	72.5822	600
-338.003	73.55	608
-335.582	73.3081	606
-331.513	72.7032	601
-326.918	71.9774	595
-326.179	72.0984	596
-318.349	70.6467	584
-312.743	69.679	576
-309.875	69.316	573
-307.021	68.9531	570
-309.007	69.679	576
-309.899	70.1628	580
-316.628	71.9774	595
-316.932	72.3403	598
-314.055	71.9774	595
-308.564	71.0096	587
-304.154	70.2838	581
-304.462	70.6467	584
-307.353	71.6145	592
-305.556	71.4935	591
-301.704	70.8887	586
-298.387	70.4048	582
-299.681	71.0096	587
-300.446	71.4935	591
-301.193	71.9774	595
-301.923	72.4613	599
-302.134	72.8242	602
-296.335	71.7355	593
-290.575	70.6467	584
-285.845	69.7999	577
-283.611	69.558	575
-281.386	69.316	573
-281.125	69.558	575
-281.342	69.9209	578
-281.547	70.2838	581
-281.738	70.6467	584
-282.397	71.1306	588
-281.604	71.2516	589
-278.427	70.7677	585
-274.793	70.1628	580
-273.539	70.1628	580
-275.102	70.8887	586
-275.705	71.3725	590
-273.499	71.1306	588
-273.154	71.3725	590
-274.183	71.9774	595
-272.896	71.9774	595
-271.61	71.9774	595
-268.507	71.4935	591
-265.42	71.0096	587
-260.551	70.0419	579
-257.508	69.558	575
-256.711	69.679	576
-255.023	69.558	575
-253.78	69.558	575
-251.219	69.1951	572
-250.419	69.316	573
-251.355	69.9209	578
-252.702	70.6467	584
-251.87	70.7677	585
-250.177	70.6467	584
-245.931	69.7999	577
-246.38	70.2838	581
-246.39	70.6467	584
-246.387	71.0096	587
-245.535	71.1306	588
-241.356	70.2838	581
-236.381	69.1951	572
-233.5	68.7112	568
-230.228	68.1063	563
-229.011	68.1063	563
-230.221	68.8322	569
-231.003	69.437	574
-236.567	71.4935	591
-235.688	71.6145	592
-234.012	71.4935	591
-231.159	71.0096	587
-228.716	70.6467	584
-227.064	70.5257	583
-225.416	70.4048	582
-226.854	71.2516	589
-225.964	71.3725	590
-225.45	71.6145	592
-223.792	71.4935	591
-219.878	70.6467	584
-215.996	69.7999	577
-214.004	69.558	575
-214.241	70.0419	579
-214.093	70.4048	582
-216.492	71.6145	592
-215.939	71.8564	594
-213.21	71.3725	590
-211.216	71.1306	588
-209.945	71.1306	588
-207.609	70.7677	585
-204.581	70.1628	580
-201.925	69.679	576
-202.422	70.2838	581
-203.936	71.2516	589
-201.974	71.0096	587
-199.679	70.6467	584
-197.058	70.1628	580
-193.779	69.437	574
-191.867	69.1951	572
-191.964	69.679	576
-192.043	70.1628	580
-191.447	70.4048	582
-188.555	69.7999	577
-185.684	69.1951	572
-182.513	68.4692	566
-180.649	68.2273	564
-179.112	68.1063	563
-180.106	68.9531	570
-181.385	69.9209	578
-182.317	70.7677	585
-180.433	70.5257	583
-179.173	70.5257	583
-179.133	71.0096	587
-178.774	71.3725	590
-176.295	70.8887	586
-174.431	70.6467	584
-172.575	70.4048	582
-169.256	69.558	575
-166.553	68.9531	570
-165.03	68.8322	569
-165.24	69.437	574
-165.427	70.0419	579
-165.877	70.7677	585
-164.331	70.6467	584
-163.069	70.6467	584
-161.806	70.6467	584
-160.819	70.7677	585
-159.281	70.6467	584
-155.854	69.679	576
-154.609	69.679	576
-152.831	69.437	574
-151.062	69.1951	572
-147.992	68.3483	565
-144.953	67.5015	558
-145.807	68.4692	566
-146.627	69.437	574
-145.893	69.679	576
-144.899	69.7999	577
-142.656	69.316	573
-140.183	68.7112	568
-141.646	70.0419	579
-141.365	70.5257	583
-141.787	71.3725	590
-140.273	71.2516	589
-135.46	69.437	574
-134.687	69.679	576
-134.832	70.4048	582
-134.95	71.1306	588
-134.589	71.6145	592
-132.859	71.3725	590
-130.691	70.8887	586
-127.878	70.0419	579
-126.189	69.7999	577
-125.375	70.0419	579
-123.695	69.7999	577
-119.689	68.2273	564
-117.209	67.5015	558
-116.211	67.6225	559
-116.237	68.3483	565
-116.44	69.1951	572
-115.405	69.316	573
-113.967	69.1951	572
-112.731	69.1951	572
-111.884	69.437	574
-111.222	69.7999	577
-109.593	69.558	575
-108.539	69.679	576
-106.921	69.437	574
-106.417	69.9209	578
-104.803	69.679	576
-103.558	69.679	576
-102.313	69.679	576
-101.77	70.1628	580
-101.382	70.7677	585
-100.118	70.7677	585
-99.191	71.0096	587
-98.2557	71.2516	589
-95.6652	70.2838	581
-93.4343	69.558	575
-91.7103	69.1951	572
-89.9993	68.8322	569
-87.8333	68.1063	563
-86.4624	67.9854	562
-85.5508	68.2273	564
-84.6307	68.4692	566
-83.9966	68.9531	570
-83.3452	69.437	574
-82.5335	69.7999	577
-80.8636	69.437	574
-78.0969	68.1063	563
-76.1971	67.5015	558
-74.7221	67.2595	556
-73.5201	67.2595	556
-72.3182	67.2595	556
-70.6047	66.7757	552
-69.4114	66.7757	552
-68.3417	66.8966	553
-67.8748	67.6225	559
-67.859	68.8322	569
-66.8632	69.0741	571
-65.2841	68.7112	568
-64.2818	68.9531	570
-62.939	68.8322	569
-61.1667	68.2273	564
-59.5223	67.7434	560
-58.7283	68.2273	564
-58.4268	69.316	573
-57.4875	69.679	576
-56.2424	69.679	576
-55.0927	69.7999	577
-53.3788	69.1951	572
-51.6865	68.5902	567
-50.2828	68.3483	565
-48.9746	68.2273	564
-47.8401	68.3483	565
-46.7838	68.5902	567
-45.4777	68.4692	566
-44.176	68.3483	565
-42.7265	67.9854	562
-41.2901	67.6225	559
-40.7987	68.8322	569
-39.4296	68.5902	567
-38.1365	68.4692	566
-37.3043	69.1951	572
-36.32	69.679	576
-35.4402	70.4048	582
-34.2996	70.6467	584
-33.0371	70.6467	584
-31.7747	70.6467	584
-30.5645	70.7677	585
-29.4502	71.1306	588
-28.2749	71.3725	590
-26.8622	71.0096	587
-25.5061	70.7677	585
-23.9929	70.0419	579
-22.5448	69.437	574
-21.4154	69.7999	577
-20.1331	69.679	576
-18.6912	68.9531	570
-17.5203	69.1951	572
-16.4261	69.7999	577
-14.8894	68.4692	566
-13.7142	68.7112	568
-12.4863	68.7112	568
-11.4369	69.7999	577
-10.1719	69.679	576
-8.89577	69.437	574
-7.62828	69.1951	572
-6.36943	68.9531	570
-5.11021	68.5902	567
-3.90507	68.9531	570
-2.7151	70.0419	579
-1.48621	71.1306	588
-0.215857	71.3725	590
1.06135	71.4935	591
2.32705	71.1306	588
3.57978	70.7677	585
4.84439	70.7677	585
6.09855	70.6467	584
7.37359	70.7677	585
8.43147	69.0741	571
9.63195	68.8322	569
10.862	68.8322	569
12.4108	70.6467	584
13.8839	71.7355	593
15.1402	71.6145	592
16.3368	71.2516	589
17.4904	70.7677	585
18.5947	70.1628	580
19.8827	70.2838	581
21.2115	70.5257	583
22.4717	70.5257	583
23.5692	70.0419	579
24.778	69.9209	578
26.0274	69.9209	578
27.2769	69.9209	578
28.477	69.7999	577
29.7243	69.7999	577
31.079	70.0419	579
32.3306	70.0419	579
33.5243	69.9209	578
34.3526	69.0741	571
35.2753	68.4692	566
36.4344	68.3483	565
36.7893	66.7757	552
37.9138	66.6547	551
39.3888	67.1386	555
40.6616	67.2595	556
41.7883	67.1386	555
42.9106	67.0176	554
44.2674	67.2595	556
45.8782	67.8644	561
47.5106	68.4692	566
49.3369	69.316	573
50.4873	69.1951	572
51.1812	68.4692	566
51.8492	67.7434	560
53.0598	67.7434	560
54.4642	67.9854	562
55.8772	68.2273	564
57.2989	68.4692	566
59.0394	69.0741	571
60.1682	68.9531	570
61.1849	68.7112	568
62.6325	68.9531	570
64.4249	69.558	575
65.0969	68.9531	570
65.6308	68.2273	564
66.3759	67.7434	560
67.5865	67.7434	560
69.5342	68.4692	566
71.1327	68.8322	569
72.8715	69.316	573
74.2395	69.437	574
74.9543	68.9531	570
75.9191	68.7112	568
77.5545	69.0741	571
79.2028	69.437	574
80.1633	69.1951	572
80.9729	68.8322	569
82.0584	68.7112	568
83.2863	68.7112	568
84.6629	68.8322	569
85.4401	68.4692	566
86.5105	68.3483	565
86.9555	67.7434	560
87.6937	67.3805	557
88.8978	67.3805	557
90.4254	67.6225	559
92.1256	67.9854	562
93.3404	67.9854	562
94.8918	68.2273	564
95.259	67.6225	559
96.2948	67.5015	558
97.6758	67.6225	559
99.9455	68.3483	565
102.42	69.1951	572
104.2	69.558	575
105.26	69.437	574
107.058	69.7999	577
108.117	69.679	576
108.223	68.9531	570
108.879	68.5902	567
110.299	68.7112	568
110.742	68.2273	564
111.961	68.2273	564
112.979	68.1063	563
114.399	68.2273	564
116.233	68.5902	567
118.288	69.0741	571
118.266	68.3483	565
118.853	67.9854	562
119.641	67.7434	560
121.283	67.9854	562
123.37	68.4692	566
125.694	69.0741	571
126.928	69.0741	571
126.367	68.1063	563
126.451	67.5015	558
128.572	67.9854	562
131.865	69.0741	571
133.566	69.316	573
134.569	69.1951	572
135.568	69.0741	571
134.646	67.9854	562
135.62	67.8644	561
137.564	68.2273	564
