-298.235	66.143	806
-293.918	65.5686	799
-290.362	65.1582	794
-289.009	65.2403	795
-287.291	65.2403	795
-289.524	66.143	806
-295.279	67.8663	827
-295.976	68.4408	834
-293.468	68.2766	832
-289.215	67.7022	825
-284.993	67.1277	818
-283.225	67.1277	818
-281.456	67.1277	818
-294.048	70.5744	860
-287.773	69.5076	847
-284.591	69.1793	843
-282.433	69.0973	842
-281.613	69.3435	845
-280.118	69.4255	846
-277.631	69.2614	844
-277.114	69.5896	848
-274.307	69.3435	845
-271.19	69.0152	841
-267.771	68.6049	836
-264.691	68.2766	832
-263.84	68.5228	835
-257.956	67.456	822
-255.244	67.2098	819
-256.568	68.0304	829
-253.239	67.6201	824
-250.848	67.456	822
-249.374	67.5381	823
-250.904	68.4408	834
-253.283	69.5896	848
-254.415	70.4103	858
-249.911	69.6717	849
-244.277	68.6049	836
-238.699	67.5381	823
-237.208	67.6201	824
-238.284	68.4408	834
-239.033	69.1793	843
-237.492	69.2614	844
-234.83	69.0152	841
-232.181	68.769	838
-227.07	67.7843	826
-225.558	67.8663	827
-225.123	68.2766	832
-225.472	68.9331	840
-225.253	69.4255	846
-222.896	69.2614	844
-220.548	69.0973	842
-218.468	69.0152	841
-216.392	68.9331	840
-215.598	69.2614	844
-212.254	68.769	838
-209.187	68.3587	833
-206.141	67.9484	828
-205.092	68.1946	831
-202.806	68.0304	829
-201.984	68.3587	833
-197.059	67.2919	820
-193.143	66.5533	811
-192.098	66.7995	814
-190.105	66.7174	813
-186.494	66.0609	805
-183.606	65.6506	800
-182.331	65.8147	802
-181.498	66.143	806
-181.986	66.9636	816
-179.56	66.7174	813
-176.709	66.3071	808
-173.446	65.7327	801
-170.857	65.4044	797
-169.983	65.7327	801
-169.092	66.0609	805
-167.144	65.9789	804
-165.2	65.8968	803
-162.243	65.4044	797
-160.923	65.5686	799
-160.192	65.9789	804
-159.045	66.2251	807
-158.47	66.7174	813
-156.713	66.7174	813
-154.002	66.3071	808
-151.313	65.8968	803
-149.764	65.9789	804
-148.762	66.3071	808
-147.379	66.4712	810
-144.55	65.9789	804
-141.035	65.1582	794
-138.968	64.9941	792
-139.162	65.8968	803
-138.111	66.2251	807
-135.86	65.9789	804
-133.454	65.6506	800
-131.89	65.7327	801
-131.458	66.3892	809
-130.671	66.8816	815
-128.435	66.6354	812
-130.268	68.5228	835
-127.232	67.8663	827
-124.838	67.5381	823
-122.759	67.3739	821
-123.637	68.8511	839
-122.695	69.3435	845
-119.724	68.687	837
-116.224	67.7022	825
-113.747	67.2919	820
-111.838	67.2098	819
-110.336	67.3739	821
-108.165	67.1277	818
-105.486	66.5533	811
-102.965	66.0609	805
-101.979	66.5533	811
-101.956	67.7022	825
-100.537	67.9484	828
-97.7934	67.2919	820
-95.201	66.7174	813
-93.0988	66.4712	810
-92.25	67.1277	818
-91.256	67.7022	825
-89.2557	67.5381	823
-86.0948	66.4712	810
-83.4067	65.7327	801
-81.4712	65.5686	799
-80.1432	65.8968	803
-79.3838	66.7174	813
-78.1037	67.1277	818
-76.8953	67.6201	824
-75.2053	67.7022	825
-72.1759	66.5533	811
-69.1202	65.3224	796
-67.2302	65.1582	794
-65.9263	65.5686	799
-64.4401	65.8147	802
-63.332	66.4712	810
-63.1015	68.1125	830
-62.1198	69.0152	841
-60.0149	68.687	837
-57.7188	68.1125	830
-55.7225	67.8663	827
-53.9999	67.9484	828
-52.147	67.8663	827
-50.0548	67.456	822
-47.9254	66.9636	816
-46.3878	67.2919	820
-45.0504	67.9484	828
-43.365	68.1125	830
-41.5207	68.0304	829
-39.7766	68.1125	830
-38.0281	68.1946	831
-35.7085	67.2098	819
-33.1922	65.7327	801
-31.225	65.2403	795
-29.5064	65.2403	795
-27.8927	65.4865	798
-26.1349	65.4044	797
-24.167	64.7479	789
-23.0023	66.3071	808
-21.5187	67.1277	818
-20.0401	68.1125	830
-18.5317	69.1793	843
-16.7292	69.2614	844
-14.6928	68.2766	832
-12.8167	67.8663	827
-10.989	67.6201	824
-9.15186	67.2098	819
-7.36339	67.0457	817
-5.59727	67.0457	817
-3.87335	67.7843	826
-2.08525	67.7022	825
-0.301833	67.7022	825
1.47799	67.5381	823
3.22146	66.7995	814
4.93826	66.2251	807
6.60824	65.4865	798
8.33329	65.4865	798
10.197	66.3892	809
12.123	67.3739	821
13.9316	67.5381	823
15.768	67.7843	826
17.4686	67.456	822
19.0582	66.7995	814
20.6899	66.3892	809
22.4665	66.4712	810
23.8288	65.4044	797
25.6479	65.6506	800
27.4457	65.8147	802
28.9611	65.3224	796
30.9131	65.8147	802
32.7689	66.0609	805
34.4662	65.9789	804
36.1592	65.8968	803
37.9895	66.0609	805
39.9271	66.3892	809
41.9335	66.7995	814
43.6931	66.7995	814
45.2852	66.5533	811
47.2124	66.7995	814
48.972	66.7995	814
50.9186	67.0457	817
52.8137	67.2098	819
55.184	67.9484	828
57.3179	68.3587	833
59.1186	68.3587	833
60.4805	67.8663	827
61.8165	67.3739	821
62.8942	66.6354	812
64.8087	66.7995	814
66.8955	67.1277	818
69.1674	67.6201	824
70.9487	67.6201	824
72.5534	67.456	822
74.9633	68.0304	829
77.3109	68.5228	835
79.5897	68.9331	840
81.3086	68.8511	839
83.1223	68.8511	839
85.1384	69.0152	841
87.2666	69.2614	844
88.2466	68.6049	836
88.7612	67.6201	824
89.114	66.5533	811
89.8587	65.8147	802
91.4782	65.7327	801
93.7916	66.143	806
96.2451	66.6354	812
99.0866	67.3739	821
101.353	67.7022	825
103.261	67.7843	826
104.411	67.3739	821
105.151	66.7174	813
106.908	66.7174	813
109.334	67.1277	818
112.868	68.1946	831
114.665	68.1946	831
115.9	67.8663	827
117.404	67.7022	825
118.898	67.5381	823
121.41	67.9484	828
124.837	68.8511	839
120.612	65.5686	799
121.727	65.2403	795
122.825	64.912	791
124.849	65.0762	793
126.723	65.1582	794
129.895	65.8968	803
131.795	65.9789	804
133.533	65.9789	804
134.598	65.6506	800
136.498	65.7327	801
139.438	66.3071	808
142.233	66.7995	814
143.639	66.6354	812
142.35	65.2403	795
142.619	64.5838	787
145.42	65.0762	793
148.99	65.8968	803
151.101	66.0609	805
151.322	65.4044	797
151.509	64.7479	789
156.322	66.0609	805
160.418	67.0457	817
163.177	67.456	822
161.542	66.0609	805
161.051	65.1582	794
164.818	65.9789	804
167.591	66.3892	809
168.712	66.143	806
168.763	65.4865	798
168.351	64.6658	788
169.192	64.3376	784
172.848	65.0762	793
176.544	65.8147	802
177.833	65.6506	800
177.766	64.9941	792
179.025	64.83	790
181.648	65.1582	794
185.443	65.8968	803
186.946	65.8147	802
189.15	65.9789	804
189.226	65.4044	797
192.626	65.9789	804
195.573	66.3892	809
197.322	66.3892	809
199.809	66.6354	812
201.812	66.7174	813
204.321	66.9636	816
206.59	67.1277	818
211.669	68.1946	831
213.466	68.1946	831
214.485	67.9484	828
214.185	67.2919	820
216.221	67.3739	821
217.465	67.2098	819
219.235	67.2098	819
217.498	66.143	806
219.24	66.143	806
220.434	65.9789	804
223.278	66.3071	808
229.48	67.6201	824
232.665	68.0304	829
233.891	67.8663	827
234.539	67.5381	823
234.308	66.9636	816
238.097	67.5381	823
241.042	67.8663	827
242.83	67.8663	827
245.505	68.1125	830
247.001	68.0304	829
248.793	68.0304	829
249.376	67.7022	825
249.333	67.2098	819
251.41	67.2919	820
257.197	68.3587	833
258.686	68.2766	832
259.859	68.1125	830
262.599	68.3587	833
265.669	68.687	837
268.437	68.9331	840
270.575	69.0152	841
268.506	68.0304	829
271.276	68.2766	832
274.388	68.6049	836
278.838	69.2614	844
273.014	67.3739	821
274.119	67.2098	819
271.847	66.2251	807
269.524	65.2403	795
271.925	65.4044	797
276.738	66.143	806
279.516	66.3892	809
279.527	65.9789	804
279.866	65.6506	800
283.355	66.0609	805
290.407	67.2919	820
292.18	67.2919	820
296.104	67.7843	826
299.692	68.1946	831
301.851	68.2766	832
301.46	67.7843	826
302.512	67.6201	824
302.816	67.2919	820
301.245	66.5533	811
301.504	66.2251	807
303.248	66.2251	807
307.261	66.7174	813
311.679	67.2919	820
318.038	68.2766	832
320.99	68.5228	835
322.409	68.4408	834
322.657	68.1125	830
325.623	68.3587	833
328.21	68.5228	835
326.458	67.7843	826
321.886	66.4712	810
322.438	66.2251	807
323.379	66.0609	805
327.946	66.6354	812
332.138	67.1277	818
335.131	67.3739	821
336.906	67.3739	821
339.093	67.456	822
341.699	67.6201	824
340.146	66.9636	816
340.653	66.7174	813
344.095	67.0457	817
348.824	67.6201	824
348.903	67.2919	820
348.11	66.7995	814
351.159	67.0457	817
354.221	67.2919	820
359.467	67.9484	828
363.438	68.3587	833
362.17	67.7843	826
359.99	67.0457	817
363.084	67.2919	820
366.637	67.6201	824
368.418	67.6201	824
371.996	67.9484	828
376.495	68.4408	834
379.658	68.687	837
378.733	68.1946	831
375.493	67.2919	820
372.204	66.3892	809
372.566	66.143	806
374.309	66.143	806
376.518	66.2251	807
379.2	66.3892	809
383.774	66.8816	815
393.104	68.1946	831
394.901	68.1946	831
393.833	67.7022	825
393.219	67.2919	820
393.064	66.9636	816
393.861	66.7995	814
397.564	67.1277	818
392.986	66.0609	805
393.255	65.8147	802
394.989	65.8147	802
398.207	66.0609	805
396.966	65.5686	799
396.198	65.1582	794
396.912	64.9941	792
401.141	65.4044	797
402.358	65.3224	796
402.049	64.9941	792
403.761	64.9941	792
410.592	65.8147	802
417.467	66.6354	812
420.255	66.7995	814
419.941	66.4712	810
418.048	65.8968	803
416.124	65.3224	796
417.32	65.2403	795
421.674	65.6506	800
425.52	65.9789	804
427.79	66.0609	805
428.996	65.9789	804
430.734	65.9789	804
428.707	65.4044	797
430.43	65.4044	797
434.322	65.7327	801
436.053	65.7327	801
443.25	66.5533	811
447.198	66.8816	815
450.062	67.0457	817
450.169	66.7995	814
453.039	66.9636	816
457.032	67.2919	820
461.043	67.6201	824
465.071	67.9484	828
466.297	67.8663	827
465.821	67.5381	823
465.327	67.2098	819
467.668	67.2919	820
466.578	66.8816	815
471.213	67.2919	820
477.6	67.9484	828
478.232	67.7843	826
472.463	66.7174	813
468.971	65.9789	804
461.927	64.7479	789
464.808	64.912	791
466.518	64.912	791
473.555	65.6506	800
472.908	65.3224	796
471.648	64.912	791
474.554	65.0762	793
478.671	65.4044	797
485.216	66.0609	805
487.561	66.143	806
489.303	66.143	806
490.436	66.0609	805
490.342	65.8147	802
492.076	65.8147	802
493.81	65.8147	802
491.836	65.3224	796
490.457	64.912	791
490.3	64.6658	788
506.364	66.5533	811
508.117	66.5533	811
-592.959	67.7167	804
-605.927	69.4012	824
-610.745	70.1592	833
-608.944	70.1592	833
-608.601	70.3277	835
-597.349	69.2328	822
-591.949	68.8116	817
-585.127	68.2221	810
-583.376	68.2221	810
-583.061	68.3905	812
-579.158	68.1378	809
-580.264	68.4747	813
-584.199	69.1485	821
-581.715	69.0643	820
-579.942	69.0643	820
-575.349	68.7274	816
-573.585	68.7274	816
-573.924	68.9801	819
-581.934	70.1592	833
-585.008	70.7488	840
-583.192	70.7488	840
-587.605	71.5068	849
-590.6	72.0964	856
-591.5	72.4333	860
-584.842	71.8437	853
-577.53	71.1699	845
-575.022	71.0857	844
-573.198	71.0857	844
-557.157	69.317	823
-557.402	69.5697	826
-557.634	69.8223	829
-553.831	69.5697	826
-552.045	69.5697	826
-547.595	69.2328	822
-550.466	69.8223	829
-548.674	69.8223	829
-546.882	69.8223	829
-544.432	69.7381	828
-536.744	68.9801	819
-532.361	68.6432	815
-531.901	68.8116	817
-534.029	69.317	823
-532.249	69.317	823
-536.916	70.1592	833
-535.115	70.1592	833
-537.796	70.7488	840
-537.894	71.0015	843
-534.164	70.7488	840
-526.011	69.9066	830
-520.427	69.4012	824
-521.164	69.7381	828
-526.901	70.7488	840
-527.586	71.0857	844
-523.269	70.7488	840
-518.35	70.3277	835
-516.545	70.3277	835
-505.493	69.0643	820
-502.492	68.8959	818
-503.172	69.2328	822
-506.275	69.9066	830
-508.735	70.4961	837
-505.714	70.3277	835
-504.513	70.4119	836
-505.111	70.7488	840
-500.898	70.4119	836
-496.703	70.075	832
-496.094	70.2435	834
-494.292	70.2435	834
-483.04	68.8959	818
-477.154	68.3063	811
-481.262	69.1485	821
-480.072	69.2328	822
-478.295	69.2328	822
-481.735	69.9908	831
-486.292	70.9173	842
-490.225	71.7595	852
-486.664	71.5068	849
-476.263	70.2435	834
-461.944	68.3905	812
-455.088	67.6325	803
-453.352	67.6325	803
-452.741	67.8009	805
-454.363	68.3063	811
-456.516	68.8959	818
-459.195	69.5697	826
-460.179	69.9908	831
-457.279	69.8223	829
-452.74	69.4012	824
-450.958	69.4012	824
-443.726	68.559	814
-436.537	67.7167	804
-429.932	66.9587	795
-427.136	66.7902	793
-429.713	67.464	801
-430.653	67.8852	806
-431.572	68.3063	811
-433.529	68.8959	818
-433.872	69.2328	822
-432.095	69.2328	822
-430.841	69.317	823
-430.626	69.5697	826
-429.36	69.6539	827
-427.572	69.6539	827
-424.24	69.4012	824
-421.946	69.317	823
-417.103	68.8116	817
-411.779	68.2221	810
-406.484	67.6325	803
-398.7	66.6218	791
-396.99	66.6218	791
-392.282	66.1164	785
-389.092	65.8638	782
-390.869	66.4533	789
-391.63	66.8745	794
-392.86	67.3798	800
-393.575	67.8009	805
-394.756	68.3063	811
-393.972	68.4747	813
-392.697	68.559	814
-389.496	68.3063	811
-387.265	68.2221	810
-384.562	68.0536	808
-378.551	67.2956	799
-373.994	66.7902	793
-371.341	66.6218	791
-371.501	66.9587	795
-376.294	68.1378	809
-375.471	68.3063	811
-372.796	68.1378	809
-369.671	67.8852	806
-369.299	68.1378	809
-371.639	68.8959	818
-370.775	69.0643	820
-368.102	68.8959	818
-364.99	68.6432	815
-361.446	68.3063	811
-359.693	68.3063	811
-354.409	67.6325	803
-350.477	67.2114	798
-346.13	66.706	792
-344.852	66.7902	793
-343.571	66.8745	794
-342.285	66.9587	795
-340.995	67.0429	796
-337.569	66.706	792
-335.009	66.5376	790
-333.723	66.6218	791
-332.013	66.6218	791
-327.38	66.0322	784
-323.193	65.5269	778
-318.618	64.9373	771
-316.952	64.9373	771
-312.831	64.4319	765
-314.025	65.0215	772
-321.258	66.8745	794
-320.346	67.0429	796
-313.021	65.8638	782
-310.933	65.7795	781
-310.432	66.0322	784
-308.738	66.0322	784
-306.26	65.8638	782
-306.516	66.2849	787
-307.139	66.7902	793
-306.965	67.1271	797
-306.009	67.2956	799
-303.139	67.0429	796
-302.175	67.2114	798
-298.568	66.7902	793
-296.479	66.706	792
-293.279	66.3691	788
-291.575	66.3691	788
-289.136	66.2007	786
-286.34	65.948	783
-283.193	65.6111	779
-283.677	66.1164	785
-279.107	65.4426	777
-278.498	65.6953	780
-279.296	66.2849	787
-280.417	66.9587	795
-276.945	66.5376	790
-273.147	66.0322	784
-269.721	65.6111	779
-268.037	65.6111	779
-264.644	65.19	774
-262.631	65.1058	773
-263.998	65.8638	782
-270.358	67.8852	806
-271.615	68.6432	815
-273.827	69.6539	827
-274.012	70.1592	833
-272.865	70.3277	835
-271.06	70.3277	835
-266.676	69.6539	827
-262.005	68.8959	818
-257.692	68.2221	810
-255.309	68.0536	808
-251.365	67.464	801
-245.582	66.3691	788
-241.403	65.6953	780
-243.098	66.6218	791
-244.744	67.5483	802
-243.92	67.8009	805
-243.082	68.0536	808
-244.621	68.9801	819
-240.182	68.2221	810
-238.725	68.3063	811
-235.219	67.8009	805
-231.448	67.2114	798
-231.451	67.7167	804
-230.855	68.0536	808
-225.99	67.1271	797
-224.267	67.1271	797
-222.544	67.1271	797
-221.098	67.2114	798
-217.999	66.7902	793
-215.193	66.4533	789
-214.029	66.6218	791
-214.735	67.3798	800
-216.201	68.3905	812
-217.086	69.2328	822
-216.619	69.6539	827
-214.312	69.4854	825
-210.725	68.8959	818
-207.935	68.559	814
-205.162	68.2221	810
-202.155	67.8009	805
-199.17	67.3798	800
-196.701	67.1271	797
-194.978	67.1271	797
-193.982	67.3798	800
-191.051	66.9587	795
-190.285	67.2956	799
-188.794	67.3798	800
-185.662	66.8745	794
-183.019	66.5376	790
-179.475	65.8638	782
-177.557	65.7795	781
-175.869	65.7795	781
-174.627	65.948	783
-172.492	65.7795	781
-170.148	65.5269	778
-169.332	65.8638	782
-168.07	66.0322	784
-166.588	66.1164	785
-164.471	65.948	783
-162.155	65.6953	780
-160.263	65.6111	779
-159.189	65.8638	782
-158.707	66.3691	788
-156.605	66.2007	786
-154.906	66.2007	786
-152.623	65.948	783
-151.315	66.1164	785
-150	66.2849	787
-148.487	66.3691	788
-147.528	66.706	792
-146.185	66.8745	794
-144.286	66.7902	793
-141.314	66.2007	786
-138.016	65.4426	777
-136.161	65.3584	776
-134.137	65.19	774
-134.175	66.0322	784
-134.001	66.7902	793
-131.286	66.2849	787
-128.926	65.948	783
-127.233	65.948	783
-125.701	66.0322	784
-123.373	65.6953	780
-119.347	64.4319	765
-117.232	64.1793	762
-119.984	66.6218	791
-119.918	67.5483	802
-117.743	67.2956	799
-114.418	66.3691	788
-112.286	66.1164	785
-111.293	66.5376	790
-111.25	67.5483	802
-111.291	68.6432	815
-109.933	68.8959	818
-107.9	68.7274	816
-104.835	67.8852	806
-102.454	67.464	801
-100.596	67.3798	800
-100.103	68.2221	810
-97.6232	67.7167	804
-95.4081	67.3798	800
-93.4446	67.2114	798
-92.0643	67.464	801
-91.1222	68.0536	808
-90.3711	68.8116	817
-88.0627	68.3905	812
-85.4571	67.7167	804
-82.4695	66.706	792
-80.5535	66.5376	790
-78.8457	66.5376	790
-76.3568	65.8638	782
-74.3799	65.6111	779
-72.8826	65.7795	781
-71.6501	66.2007	786
-69.951	66.2007	786
-67.9914	65.948	783
-66.0447	65.6953	780
-64.2761	65.6111	779
-62.5921	65.6111	779
-60.9081	65.6111	779
-59.2242	65.6111	779
-57.4663	65.5269	778
-57.0751	67.0429	796
-56.6062	68.559	814
-54.9813	68.7274	816
-52.7608	68.1378	809
-51.2642	68.4747	813
-49.2631	68.1378	809
-47.5143	68.1378	809
-45.7089	68.0536	808
-44.4519	68.8116	817
-42.6336	68.7274	816
-40.6192	68.3063	811
-38.866	68.3063	811
-36.7925	67.7167	804
-34.5749	66.7902	793
-32.6121	66.2849	787
-30.793	66.0322	784
-29.0611	65.948	783
-27.1238	65.3584	776
-25.2823	64.9373	771
-23.4318	64.4319	765
-21.7781	64.4319	765
-20.2823	64.9373	771
-18.9053	65.948	783
-17.4325	66.7902	793
-15.8769	67.464	801
-14.11	67.2956	799
-12.4448	67.6325	803
-10.7623	67.9694	807
-9.01777	67.9694	807
-7.24623	67.7167	804
-5.50136	67.6325	803
-3.76081	67.5483	802
-2.02711	67.5483	802
-0.297809	68.559	814
1.42052	66.6218	791
3.07503	65.4426	777
4.73633	65.19	774
6.40121	65.1058	773
8.12443	65.5269	778
9.9575	66.5376	790
11.7391	66.9587	795
13.5931	67.6325	803
15.2526	67.2956	799
16.8948	66.9587	795
18.707	67.2956	799
20.3575	67.0429	796
21.884	66.4533	789
23.47	66.1164	785
25.167	66.1164	785
26.8297	66.0322	784
28.5973	66.2007	786
30.2964	66.2007	786
31.8734	65.948	783
33.566	65.948	783
35.2586	65.948	783
37.0456	66.1164	785
39.1867	66.8745	794
41.1092	67.2114	798
42.7806	67.1271	797
44.6151	67.2956	799
46.5744	67.6325	803
48.4305	67.8009	805
50.1084	67.7167	804
51.7819	67.6325	803
53.7177	67.8852	806
55.8041	68.3063	811
57.6992	68.4747	813
59.0179	67.9694	807
59.8589	66.9587	795
61.0352	66.3691	788
63.0571	66.706	792
65.6688	67.6325	803
67.7404	67.9694	807
69.7432	68.2221	810
71.5825	68.3063	811
73.7878	68.7274	816
75.9221	69.0643	820
77.5052	68.8959	818
78.7889	68.4747	813
81.1408	68.9801	819
82.5063	68.6432	815
83.0274	67.6325	803
85.1854	67.9694	807
87.1454	68.1378	809
88.2349	67.6325	803
88.4022	66.4533	789
89.7652	66.2007	786
91.697	66.3691	788
93.6375	66.5376	790
96.7935	67.5483	802
98.8958	67.8009	805
100.636	67.8009	805
101.995	67.5483	802
104.375	67.9694	807
105.988	67.8852	806
107.73	67.8852	806
110.423	68.4747	813
112.871	68.8959	818
114.219	68.6432	815
113.134	66.9587	795
113.697	66.2849	787
113.492	65.19	774
116.505	65.948	783
118.197	65.948	783
119.584	65.7795	781
119.874	65.0215	772
121.858	65.19	774
124.808	65.8638	782
127.793	66.5376	790
129.009	66.2849	787
130.378	66.1164	785
132.243	66.2007	786
133.942	66.2007	786
136.159	66.4533	789
137.34	66.2007	786
138.155	65.7795	781
139.306	65.5269	778
141.169	65.6111	779
143.22	65.7795	781
144.908	65.7795	781
146.221	65.6111	779
147.715	65.5269	778
148.245	65.0215	772
152.438	66.1164	785
155.313	66.6218	791
156.626	66.4533	789
154.719	64.9373	771
155.98	64.7688	769
159.283	65.4426	777
163.655	66.5376	790
166.619	67.0429	796
167.705	66.7902	793
166.856	65.7795	781
166.818	65.1058	773
169.579	65.5269	778
172.801	66.1164	785
174.276	66.0322	784
173.277	65.0215	772
174.266	64.7688	769
178.216	65.6111	779
180.131	65.6953	780
180.885	65.3584	776
180.445	64.6004	767
182.103	64.6004	767
188.553	66.2849	787
190.98	66.5376	790
192.931	66.6218	791
194.887	66.706	792
196.847	66.7902	793
199.563	67.1271	797
202.296	67.464	801
207.339	68.559	814
209.099	68.559	814
209.045	67.9694	807
211.312	68.1378	809
212.008	67.8009	805
213.217	67.6325	803
212.811	66.9587	795
213.99	66.7902	793
216.248	66.9587	795
217.693	66.8745	794
221.067	67.3798	800
224.467	67.8852	806
228.455	68.559	814
229.366	68.3063	811
228.269	67.464	801
228.852	67.1271	797
232.89	67.8009	805
235.213	67.9694	807
238.132	68.3063	811
240.477	68.4747	813
241.638	68.3063	811
237.689	66.706	792
240.006	66.8745	794
239.591	66.2849	787
241.599	66.3691	788
243.92	66.5376	790
245.628	66.5376	790
250.466	67.3798	800
252.826	67.5483	802
255.829	67.8852	806
256.613	67.6325	803
256.097	67.0429	796
255.55	66.4533	789
257.256	66.4533	789
261.587	67.1271	797
264.301	67.3798	800
266.363	67.464	801
265.752	66.8745	794
263.763	65.948	783
263.76	65.5269	778
268.171	66.2007	786
270.901	66.4533	789
271.224	66.1164	785
270.835	65.6111	779
271.12	65.2742	775
273.499	65.4426	777
275.533	65.5269	778
278.996	65.948	783
284.991	66.9587	795
289.594	67.6325	803
291.693	67.7167	804
289.416	66.7902	793
288.194	66.1164	785
289.521	66.0322	784
292.33	66.2849	787
294.405	66.3691	788
297.612	66.706	792
300.836	67.0429	796
304.457	67.464	801
307.717	67.8009	805
307.151	67.2956	799
309.651	67.464	801
310.994	67.3798	800
314.678	67.8009	805
316.025	67.7167	804
315.392	67.2114	798
310.759	65.8638	782
310.052	65.3584	776
311.729	65.3584	776
314.215	65.5269	778
315.49	65.4426	777
325.742	67.2114	798
325.005	66.706	792
325.892	66.5376	790
324.282	65.8638	782
327.64	66.2007	786
333.11	66.9587	795
334.408	66.8745	794
336.971	67.0429	796
339.117	67.1271	797
339.557	66.8745	794
339.124	66.4533	789
339.966	66.2849	787
341.667	66.2849	787
345.114	66.6218	791
347.262	66.706	792
349.415	66.7902	793
355.557	67.6325	803
361.742	68.4747	813
363.5	68.4747	813
367.504	68.8959	818
371.529	69.317	823
374.215	69.4854	825
370.074	68.3905	812
364.045	66.9587	795
366.223	67.0429	796
368.406	67.1271	797
371.058	67.2956	799
372.785	67.2956	799
374.044	67.2114	798
377.652	67.5483	802
381.751	67.9694	807
383.971	68.0536	808
386.195	68.1378	809
385.546	67.7167	804
385.357	67.3798	800
384.667	66.9587	795
383.956	66.5376	790
385.175	66.4533	789
387.371	66.5376	790
387.602	66.2849	787
389.303	66.2849	787
389.514	66.0322	784
387.216	65.3584	776
387.391	65.1058	773
390.068	65.2742	775
391.743	65.2742	775
391.896	65.0215	772
394.584	65.19	774
402.913	66.2849	787
408.213	66.8745	794
410.446	66.9587	795
410.091	66.6218	791
409.197	66.2007	786
406.714	65.5269	778
409.446	65.6953	780
407.97	65.19	774
410.172	65.2742	775
417.162	66.1164	785
422.594	66.706	792
421.091	66.2007	786
414.184	64.8531	770
415.848	64.8531	770
421.309	65.4426	777
432.243	66.8745	794
433.959	66.8745	794
436.224	66.9587	795
437.392	66.8745	794
438.555	66.7902	793
441.38	66.9587	795
438.082	66.2007	786
431.948	65.0215	772
438.672	65.7795	781
445.999	66.6218	791
451.671	67.2114	798
451.123	66.8745	794
450.558	66.5376	790
444.251	65.3584	776
447.078	65.5269	778
467.795	68.3063	811
466.653	67.8852	806
460.259	66.706	792
453.805	65.5269	778
453.731	65.2742	775
455.994	65.3584	776
457.671	65.3584	776
459.941	65.4426	777
457.461	64.8531	770
460.318	65.0215	772
464.979	65.4426	777
472.665	66.2849	787
478.586	66.8745	794
482.117	67.1271	797
483.84	67.1271	797
483.735	66.8745	794
484.228	66.706	792
484.1	66.4533	789
483.958	66.2007	786
483.804	65.948	783
481.776	65.4426	777
482.211	65.2742	775
487.633	65.7795	781
489.321	65.7795	781
-580.421	67.986	787
-588.279	69.109	800
-594.615	70.0593	811
-592.862	70.0593	811
-592.566	70.232	813
-587.902	69.8865	809
-578.183	68.9362	798
-572.846	68.5043	793
-571.132	68.5043	793
-564.391	67.8996	786
-567.704	68.5043	793
-572.413	69.2818	802
-571.391	69.3682	803
-568.236	69.1954	801
-566.505	69.1954	801
-563.363	69.0226	799
-561.636	69.0226	799
-560.609	69.109	800
-565.866	69.9729	810
-573.169	71.0959	823
-571.389	71.0959	823
-570.995	71.2687	825
-571.281	71.5278	828
-573.618	72.0462	834
-569.758	71.787	831
-564.544	71.3551	826
-560.715	71.0959	823
-546.032	69.4546	804
-541.586	69.109	800
-538.507	68.9362	798
-536.782	68.9362	798
-529.023	68.1588	789
-529.322	68.4179	792
-534.938	69.3682	803
-536.522	69.8001	808
-534.775	69.8001	808
-535.008	70.0593	811
-533.255	70.0593	811
-529.535	69.8001	808
-526.482	69.6273	806
-524.74	69.6273	806
-523.646	69.7137	807
-523.195	69.8865	809
-522.736	70.0593	811
-520.982	70.0593	811
-519.87	70.1457	812
-520.029	70.4048	815
-516.995	70.232	813
-509.534	69.4546	804
-505.269	69.109	800
-501.652	68.8499	797
-496.792	68.4179	792
-493.205	68.1588	789
-492.122	68.2452	790
-493.519	68.6771	795
-491.8	68.6771	795
-493.78	69.1954	801
-495.734	69.7137	807
-497.663	70.232	813
-498.955	70.664	818
-495.971	70.4912	816
-489.968	69.8865	809
-487.012	69.7137	807
-485.869	69.8001	808
-484.122	69.8001	808
-480.584	69.541	805
-481.224	69.8865	809
-479.475	69.8865	809
-469.459	68.6771	795
-465.387	68.3315	791
-464.263	68.4179	792
-464.303	68.6771	795
-462.584	68.6771	795
-464.344	69.1954	801
-469.543	70.232	813
-470.663	70.664	818
-466.028	70.232	813
-457.418	69.1954	801
-452.273	68.6771	795
-449.421	68.5043	793
-447.142	68.4179	792
-446.555	68.5907	794
-446.519	68.8499	797
-445.354	68.9362	798
-445.853	69.2818	802
-443.012	69.109	800
-439.628	68.8499	797
-441.201	69.3682	803
-437.824	69.109	800
-433.914	68.7635	796
-426.221	67.8132	785
-419.116	66.9494	775
-415.286	66.6038	771
-416.302	67.0358	776
-419.967	67.8996	786
-419.865	68.1588	789
-422.929	68.9362	798
-421.732	69.0226	799
-415.273	68.2452	790
-405.713	66.9494	775
-405.081	67.1221	777
-408.073	67.8996	786
-407.408	68.0724	788
-409.309	68.6771	795
-410.154	69.109	800
-406.893	68.8499	797
-401.103	68.1588	789
-395.348	67.4677	781
-391.643	67.1221	777
-389.462	67.0358	776
-384.286	66.431	769
-382.126	66.3447	768
-381.952	66.6038	771
-382.259	66.9494	775
-382.548	67.2949	779
-381.841	67.4677	781
-383.074	67.986	787
-377.496	67.2949	779
-376.776	67.4677	781
-377.97	67.986	787
-377.225	68.1588	789
-375.519	68.1588	789
-371.445	67.7268	784
-365.505	66.9494	775
-364.299	67.0358	776
-364.024	67.2949	779
-366.526	68.0724	788
-367.6	68.5907	794
-366.806	68.7635	796
-362.333	68.2452	790
-356.973	67.5541	782
-358.009	68.0724	788
-358.566	68.5043	793
-355.952	68.3315	791
-353.346	68.1588	789
-352.087	68.2452	790
-343.282	66.863	774
-342.933	67.1221	777
-342.571	67.3813	780
-341.759	67.5541	782
-340.504	67.6405	783
-338.378	67.5541	782
-336.688	67.5541	782
-333.284	67.2085	778
-331.176	67.1221	777
-328.224	66.863	774
-326.551	66.863	774
-324.458	66.7766	773
-319.446	66.0855	765
-316.962	65.9127	763
-313.246	65.4808	758
-307.908	64.7033	749
-304.244	64.2714	744
-304.263	64.6169	748
-303.86	64.8761	751
-301.431	64.7033	749
-302.614	65.308	756
-301.776	65.4808	758
-302.909	66.0855	765
-302.043	66.2583	767
-299.993	66.1719	766
-299.895	66.5174	770
-300.167	66.9494	775
-299.648	67.2085	778
-298.349	67.2949	779
-295.522	67.0358	776
-290.815	66.3447	768
-286.143	65.6536	760
-283.377	65.3944	757
-286.951	66.6038	771
-288.615	67.3813	780
-285.089	66.9494	775
-283.414	66.9494	775
-281.739	66.9494	775
-279.341	66.7766	773
-276.592	66.5174	770
-273.856	66.2583	767
-270.424	65.8263	762
-269.129	65.9127	763
-270.285	66.6038	771
-267.921	66.431	769
-264.528	65.9991	764
-262.876	65.9991	764
-261.224	65.9991	764
-258.893	65.8263	762
-259.272	66.3447	768
-258.953	66.6902	772
-258.617	67.0358	776
-257.602	67.2085	778
-261.184	68.5907	794
-261.101	69.0226	799
-260.997	69.4546	804
-261.194	69.9729	810
-257.521	69.4546	804
-253.556	68.8499	797
-247.725	67.7268	784
-242.892	66.863	774
-239.973	66.5174	770
-236.142	65.9127	763
-232.341	65.308	756
-234.674	66.431	769
-233.315	66.5174	770
-229.845	65.9991	764
-229.388	66.3447	768
-227.135	66.1719	766
-227.54	66.7766	773
-225.284	66.6038	771
-223.908	66.6902	772
-221.663	66.5174	770
-219.427	66.3447	768
-220.319	67.1221	777
-219.765	67.4677	781
-218.356	67.5541	782
-216.942	67.6405	783
-213.6	67.1221	777
-210.011	66.5174	770
-208.617	66.6038	771
-209.366	67.3813	780
-210.343	68.2452	790
-209.427	68.5043	793
-208.237	68.6771	795
-209.116	69.541	805
-206.861	69.3682	803
-203.081	68.6771	795
-201.363	68.6771	795
-199.142	68.5043	793
-196.432	68.1588	789
-193.492	67.7268	784
-190.085	67.1221	777
-189.375	67.4677	781
-186.966	67.2085	778
-185.284	67.2085	778
-183.13	67.0358	776
-180.751	66.7766	773
-178.617	66.6038	771
-176.95	66.6038	771
-174.602	66.3447	768
-172.941	66.3447	768
-171.95	66.6038	771
-170.063	66.5174	770
-167.523	66.1719	766
-166.301	66.3447	768
-164.855	66.431	769
-163.617	66.6038	771
-161.32	66.3447	768
-159.66	66.3447	768
-157.177	65.9991	764
-155.932	66.1719	766
-155.686	66.7766	773
-154.015	66.7766	773
-151.359	66.3447	768
-148.724	65.9127	763
-146.882	65.8263	762
-145.616	65.9991	764
-145.849	66.863	774
-145.107	67.2949	779
-143.055	67.1221	777
-140.101	66.5174	770
-136.819	65.74	761
-133.753	65.0489	753
-132.125	65.0489	753
-131.537	65.5672	759
-131.094	66.1719	766
-130.452	66.6902	772
-128.116	66.3447	768
-125.468	65.8263	762
-124.308	66.0855	765
-122.494	65.9991	764
-119.735	65.3944	757
-117.319	64.9625	752
-114.77	64.4442	746
-113.764	64.7897	750
-112.891	65.2216	755
-114.353	67.0358	776
-111.95	66.6038	771
-110.14	66.5174	770
-108.757	66.6902	772
-108.753	67.7268	784
-108.833	68.8499	797
-107.648	69.1954	801
-106.446	69.541	805
-104.575	69.4546	804
-102.198	69.0226	799
-99.9675	68.6771	795
-96.766	67.6405	783
-94.3448	67.1221	777
-91.5918	66.3447	768
-90.4	66.6902	772
-89.076	66.9494	775
-89.6562	68.6771	795
-88.1588	68.8499	797
-85.7852	68.3315	791
-82.7998	67.2949	779
-80.0746	66.431	769
-78.1063	66.1719	766
-76.4504	66.1719	766
-74.404	65.8263	762
-72.5658	65.6536	760
-71.2962	65.9991	764
-69.8269	66.1719	766
-68.705	66.6902	772
-67.3835	67.0358	776
-65.706	67.0358	776
-63.8635	66.863	774
-62.0297	66.6902	772
-60.0481	66.3447	768
-58.1598	66.0855	765
-56.58	66.1719	766
-55.3543	66.6902	772
-53.8245	66.863	774
-52.3535	67.1221	777
-50.6738	67.1221	777
-49.1834	67.3813	780
-47.8017	67.8132	785
-46.2809	68.0724	788
-44.0684	67.2949	779
-42.0579	66.7766	773
-40.4392	66.863	774
-39.0164	67.2949	779
-37.3325	67.2949	779
-35.1909	66.431	769
-33.3105	65.9991	764
-31.5347	65.74	761
-29.6932	65.308	756
-28.0961	65.3944	757
-26.5296	65.5672	759
-24.856	65.4808	758
-23.1255	65.2216	755
-21.3796	64.8761	751
-19.7035	64.7033	749
-18.2293	65.2216	755
-16.773	65.9127	763
-15.2426	66.431	769
-13.6862	66.9494	775
-12.0573	67.2085	778
-10.5089	68.0724	788
-8.81663	68.1588	789
-7.084	67.8996	786
-5.35063	67.4677	781
-3.58731	66.0855	765
-1.94118	66.3447	768
-0.285004	67.2949	779
1.3882	66.7766	773
3.02754	66.0855	765
4.65678	65.74	761
6.28528	65.5672	759
7.95735	65.8263	762
9.62979	65.9991	764
11.3109	66.1719	766
12.916	65.9127	763
14.5463	65.8263	762
16.4272	66.7766	773
18.3324	67.6405	783
19.8971	67.2085	778
21.468	66.863	774
23.0515	66.6038	771
24.6861	66.5174	770
26.4875	66.863	774
28.3062	67.2085	778
29.9495	67.1221	777
31.3442	66.5174	770
32.6658	65.8263	762
34.1329	65.4808	758
36.1018	66.0855	765
38.3971	67.2085	778
40.2334	67.4677	781
41.8681	67.3813	780
43.8334	67.8132	785
45.9364	68.4179	792
47.8289	68.6771	795
49.2982	68.3315	791
50.8146	68.0724	788
52.3848	67.8996	786
54.7032	68.6771	795
56.4217	68.6771	795
58.1403	68.6771	795
59.5577	68.3315	791
60.8803	67.8996	786
62.4998	67.8132	785
64.5239	68.1588	789
66.3973	68.3315	791
67.2462	67.4677	781
68.405	66.9494	775
70.2611	67.1221	777
72.8667	67.986	787
74.9469	68.3315	791
76.2692	67.986	787
77.8714	67.8996	786
79.4693	67.8132	785
81.5798	68.1588	789
83.7076	68.5043	793
85.5296	68.5907	794
85.9274	67.5541	782
86.8336	66.9494	775
88.1663	66.6902	772
89.6024	66.5174	770
92.2151	67.2085	778
94.5004	67.6405	783
97.053	68.2452	790
98.7607	68.2452	790
99.9598	67.8996	786
101.271	67.6405	783
103.358	67.8996	786
105.725	68.3315	791
107.979	68.6771	795
110.249	69.0226	799
110.855	68.3315	791
110.715	67.2085	778
110.519	66.0855	765
112.612	66.3447	768
114.719	66.6038	771
115.178	65.9127	763
116.368	65.6536	760
117.545	65.3944	757
119.339	65.4808	758
122.414	66.2583	767
124.396	66.431	769
126.222	66.5174	770
127.886	66.5174	770
128.878	66.1719	766
130.363	66.0855	765
131.499	65.8263	762
133.147	65.8263	762
135.148	65.9991	764
136.799	65.9991	764
137.726	65.6536	760
139.185	65.5672	759
140.826	65.5672	759
141.716	65.2216	755
142.968	65.0489	753
144.212	64.8761	751
147.195	65.4808	758
150.012	65.9991	764
150.671	65.5672	759
150.505	64.7897	750
152.127	64.7897	750
155.183	65.3944	757
159.927	66.6902	772
163.479	67.4677	781
165.802	67.7268	784
164.719	66.6038	771
164.876	65.9991	764
166.963	66.1719	766
169.72	66.6038	771
170.497	66.2583	767
170.135	65.4808	758
171.094	65.2216	755
172.268	65.0489	753
173.203	64.7897	750
175.058	64.8761	751
175.27	64.3578	745
178.542	64.9625	752
185.199	66.7766	773
188.079	67.2085	778
190.004	67.2949	779
191.934	67.3813	780
193.62	67.3813	780
197.811	68.2452	790
200.529	68.5907	794
202.5	68.6771	795
203.704	68.5043	793
203.864	67.986	787
201.909	66.7766	773
201.736	66.1719	766
204.72	66.6038	771
208.26	67.2085	778
211.291	67.6405	783
211.896	67.2949	779
213.032	67.1221	777
215.817	67.4677	781
218.619	67.8132	785
223.122	68.6771	795
225.689	68.9362	798
225.705	68.4179	792
224.832	67.6405	783
224.211	66.9494	775
227.635	67.4677	781
233.727	68.7635	796
232.194	67.8132	785
235.083	68.1588	789
233.788	67.2949	779
233.658	66.7766	773
235.025	66.6902	772
237	66.7766	773
240.215	67.2085	778
242.208	67.2949	779
243.892	67.2949	779
247.467	67.8132	785
249.799	67.986	787
243.83	65.9127	763
245.48	65.9127	763
249.072	66.431	769
253.669	67.2085	778
257.977	67.8996	786
260.997	68.2452	790
262.04	68.0724	788
259.727	67.0358	776
259.383	66.5174	770
259.353	66.0855	765
264.418	66.9494	775
266.437	67.0358	776
266.387	66.6038	771
265.62	65.9991	764
265.522	65.5672	759
267.163	65.5672	759
270.575	65.9991	764
274.008	66.431	769
276.387	66.6038	771
280.218	67.1221	777
285.163	67.8996	786
286.132	67.7268	784
284.155	66.863	774
284.351	66.5174	770
286.759	66.6902	772
289.175	66.863	774
291.975	67.1221	777
294.411	67.2949	779
297.615	67.6405	783
298.926	67.5541	782
302.538	67.986	787
304.626	68.0724	788
304.386	67.6405	783
302.951	66.9494	775
303.447	66.6902	772
302.745	66.1719	766
302.016	65.6536	760
303.659	65.6536	760
304.9	65.5672	759
309.368	66.1719	766
310.212	65.9991	764
311.863	65.9991	764
312.284	65.74	761
313.929	65.74	761
316.818	65.9991	764
319.303	66.1719	766
323.892	66.7766	773
324.721	66.6038	771
328.928	67.1221	777
331.884	67.3813	780
332.287	67.1221	777
331.818	66.6902	772
332.622	66.5174	770
334.721	66.6038	771
336.824	66.6902	772
340.247	67.0358	776
346.33	67.8996	786
350.243	68.3315	791
352.843	68.5043	793
356.346	68.8499	797
360.315	69.2818	802
360.243	68.9362	798
354.711	67.5541	782
354.578	67.2085	778
354.886	66.9494	775
355.181	66.6902	772
356.85	66.6902	772
360.841	67.1221	777
365.32	67.6405	783
364.669	67.2085	778
361.642	66.3447	768
363.775	66.431	769
363.537	66.0855	765
365.19	66.0855	765
366.844	66.0855	765
372.351	66.7766	773
370.152	66.0855	765
375.207	66.6902	772
378.341	66.9494	775
378.545	66.6902	772
378.736	66.431	769
374.463	65.3944	757
375.602	65.308	756
377.736	65.3944	757
379.372	65.3944	757
382.015	65.5672	759
386.689	66.0855	765
390.373	66.431	769
392.545	66.5174	770
396.257	66.863	774
402.044	67.5541	782
403.218	67.4677	781
401.277	66.863	774
398.265	66.0855	765
397.827	65.74	761
397.898	65.4808	758
399.536	65.4808	758
401.175	65.4808	758
401.751	65.308	756
403.918	65.3944	757
403.412	65.0489	753
406.653	65.308	756
408.288	65.308	756
412.091	65.6536	760
421.899	66.9494	775
425.214	67.2085	778
424.153	66.7766	773
419.764	65.8263	762
414.775	64.7897	750
414.175	64.4442	746
418.017	64.7897	750
423.555	65.3944	757
429.124	65.9991	764
433.03	66.3447	768
437.521	66.7766	773
435.783	66.2583	767
433.448	65.6536	760
428.221	64.6169	748
429.838	64.6169	748
432.609	64.7897	750
441.757	65.9127	763
445.15	66.1719	766
443.889	65.74	761
443.778	65.4808	758
445.416	65.4808	758
448.235	65.6536	760
450.469	65.74	761
446.768	64.9625	752
447.201	64.7897	750
448.822	64.7897	750
454.647	65.3944	757
461.708	66.1719	766
466.994	66.6902	772
467.449	66.5174	770
469.722	66.6038	771
475.669	67.2085	778
476.123	67.0358	776
471.644	66.1719	766
477.007	66.6902	772
478.676	66.6902	772
480.967	66.7766	773
481.389	66.6038	771
483.056	66.6038	771
-570.833	68.536	774
-575.778	69.3329	783
-579.951	70.0413	791
-578.241	70.0413	791
-577.989	70.2184	793
-573.368	69.8642	789
-566.591	69.2444	782
-562.011	68.8902	778
-560.329	68.8902	778
-562.237	69.3329	783
-567.704	70.2184	793
-573.84	71.1924	804
-568.544	70.7497	799
-561.142	70.0413	791
-559.432	70.0413	791
-553.492	69.51	785
-550.389	69.3329	783
-547.995	69.2444	782
-551.195	69.8642	789
-555.061	70.5726	797
-553.338	70.5726	797
-552.307	70.6611	798
-556.792	71.4581	807
-554.36	71.3695	806
-553.989	71.5466	808
-552.925	71.6352	809
-534.825	69.51	785
-533.128	69.51	785
-531.431	69.51	785
-527.035	69.1558	781
-520.638	68.536	774
-513.601	67.8276	766
-510.609	67.6505	764
-510.956	67.9162	767
-516.602	68.8902	778
-514.92	68.8902	778
-520.495	69.8642	789
-520.762	70.1298	792
-521.016	70.3955	795
-519.297	70.3955	795
-515.625	70.1298	792
-512.615	69.9528	790
-508.968	69.6871	787
-507.911	69.7757	788
-506.207	69.7757	788
-503.864	69.6871	787
-504.077	69.9528	790
-503.641	70.1298	792
-500.027	69.8642	789
-492.638	69.0673	780
-490.322	68.9787	779
-487.383	68.8016	777
-485.704	68.8016	777
-484.024	68.8016	777
-482.345	68.8016	777
-481.902	68.9787	779
-480.218	68.9787	779
-482.834	69.5986	786
-488.481	70.6611	798
-489.805	71.1039	803
-486.246	70.8382	800
-481.489	70.3955	795
-479.77	70.3955	795
-479.254	70.5726	797
-475.734	70.3069	794
-472.823	70.1298	792
-469.922	69.9528	790
-457.546	68.3589	772
-455.286	68.2703	771
-456.561	68.7131	776
-457.229	69.0673	780
-456.711	69.2444	782
-455.02	69.2444	782
-453.909	69.3329	783
-457.415	70.1298	792
-456.853	70.3069	794
-452.844	69.9528	790
-448.852	69.5986	786
-446.015	69.4215	784
-444.32	69.4215	784
-442.061	69.3329	783
-441.493	69.51	785
-437.555	69.1558	781
-430.844	68.3589	772
-421.948	67.2078	759
-420.861	67.2963	760
-421.976	67.7391	765
-422.52	68.0932	769
-422.5	68.3589	772
-422.466	68.6245	775
-417.533	68.0932	769
-411.545	67.3849	761
-407.745	67.0307	757
-405.572	66.9421	756
-407.678	67.562	763
-407.093	67.7391	765
-407.559	68.0932	769
-402.202	67.4734	762
-394.247	66.4108	750
-390.008	65.9681	745
-390.483	66.3223	749
-392.498	66.9421	756
-391.381	67.0307	757
-389.744	67.0307	757
-390.672	67.4734	762
-392.598	68.0932	769
-387.885	67.562	763
-386.236	67.562	763
-384.083	67.4734	762
-382.435	67.4734	762
-377.29	66.8536	755
-377.151	67.1192	758
-374.026	66.8536	755
-371.407	66.6765	753
-367.324	66.2337	748
-367.174	66.4994	751
-365.064	66.4108	750
-362.958	66.3223	749
-364.716	66.9421	756
-367.404	67.7391	765
-369.097	68.3589	772
-368.856	68.6245	775
-366.233	68.4474	773
-363.147	68.1818	770
-360.074	67.9162	767
-357.482	67.7391	765
-357.223	68.0047	768
-356.026	68.0932	769
-352.981	67.8276	766
-351.325	67.8276	766
-348.757	67.6505	764
-348.014	67.8276	766
-346.358	67.8276	766
-344.702	67.8276	766
-339.016	67.0307	757
-335.151	66.5879	752
-335.299	66.9421	756
-333.224	66.8536	755
-334.666	67.4734	762
-335.204	67.9162	767
-334.85	68.1818	770
-331.455	67.8276	766
-328.938	67.6505	764
-326.858	67.562	763
-326.487	67.8276	766
-324.831	67.8276	766
-323.598	67.9162	767
-316.903	66.8536	755
-314.853	66.765	754
-311.146	66.3223	749
-310.353	66.4994	751
-306.674	66.0566	746
-303.017	65.6139	741
-300.602	65.4368	739
-297.79	65.1712	736
-295.395	64.9941	734
-294.608	65.1712	736
-295.406	65.7025	742
-295.782	66.1452	747
-296.53	66.6765	753
-295.294	66.765	754
-294.832	67.0307	757
-293.583	67.1192	758
-295.026	67.8276	766
-290.306	67.1192	758
-285.621	66.4108	750
-282.106	65.9681	745
-278.99	65.6139	741
-276.639	65.4368	739
-278.019	66.1452	747
-283.065	67.7391	765
-282.147	67.9162	767
-279.392	67.6505	764
-275.559	67.1192	758
-273.197	66.9421	756
-271.204	66.8536	755
-268.858	66.6765	753
-265.456	66.2337	748
-262.78	65.9681	745
-261.521	66.0566	746
-261.301	66.4108	750
-258.641	66.1452	747
-257.027	66.1452	747
-256.438	66.4108	750
-255.836	66.6765	753
-254.883	66.8536	755
-253.251	66.8536	755
-253.618	67.3849	761
-252.304	67.4734	762
-249.999	67.2963	760
-245.742	66.5879	752
-242.493	66.1452	747
-246.36	67.6505	764
-245.67	67.9162	767
-242.739	67.562	763
-240.142	67.2963	760
-237.558	67.0307	757
-234.675	66.6765	753
-231.19	66.1452	747
-227.424	65.5254	740
-223.383	64.817	732
-222.103	64.9055	733
-222.926	65.6139	741
-224.012	66.4108	750
-224.17	66.9421	756
-222.83	67.0307	757
-220.901	66.9421	756
-217.237	66.3223	749
-214.178	65.8796	744
-212.57	65.8796	744
-215.215	67.2078	759
-214.418	67.4734	762
-213.888	67.8276	766
-211.955	67.7391	765
-209.477	67.4734	762
-205.647	66.765	754
-204.288	66.8536	755
-203.73	67.2078	759
-204.485	68.0047	768
-202.561	67.9162	767
-198.545	67.1192	758
-195.608	66.6765	753
-190.889	65.6139	741
-192.863	66.8536	755
-192.751	67.3849	761
-193.115	68.0932	769
-191.204	68.0047	768
-186.582	66.9421	756
-184.214	66.6765	753
-182.343	66.5879	752
-178.074	65.6139	741
-174.329	64.817	732
-173.219	64.9941	734
-173.736	65.791	743
-173.52	66.3223	749
-172.819	66.6765	753
-170.964	66.5879	752
-170.464	67.0307	757
-169.051	67.1192	758
-167.412	67.1192	758
-165.336	66.9421	756
-163.486	66.8536	755
-160.782	66.4108	750
-158.948	66.3223	749
-157.749	66.4994	751
-155.086	66.0566	746
-152.651	65.7025	742
-152.472	66.3223	749
-151.658	66.6765	753
-151.425	67.2963	760
-149.782	67.2963	760
-147.36	66.9421	756
-145.533	66.8536	755
-143.138	66.4994	751
-140.573	66.0566	746
-137.097	65.1712	736
-134.77	64.817	732
-132.823	64.6399	730
-131.425	64.7284	731
-129.667	64.6399	730
-129.493	65.3483	738
-129.111	65.9681	745
-128.014	66.2337	748
-126.059	66.0566	746
-123.278	65.4368	739
-121.846	65.5254	740
-120.733	65.791	743
-120.57	66.5879	752
-118.154	66.1452	747
-115.291	65.4368	739
-114.001	65.6139	741
-112.551	65.7025	742
-111.396	65.9681	745
-109.196	65.6139	741
-107.303	65.4368	739
-107.851	66.765	754
-106.785	67.1192	758
-104.869	66.9421	756
-103.098	66.8536	755
-102.138	67.2963	760
-102.082	68.3589	772
-101.454	69.0673	780
-100.279	69.4215	784
-97.8299	68.8902	778
-95.283	68.2703	771
-91.5521	66.765	754
-88.9681	66.0566	746
-87.0042	65.791	743
-85.398	65.791	743
-86.1601	67.6505	764
-85.2829	68.2703	771
-82.7486	67.562	763
-79.6111	66.3223	749
-78.0961	66.4108	750
-76.5768	66.4994	751
-74.9534	66.4994	751
-72.6464	65.8796	744
-70.4652	65.3483	738
-68.7765	65.2597	737
-68.1861	66.2337	748
-67.1921	66.8536	755
-65.9073	67.2078	759
-64.69	67.6505	764
-63.0384	67.6505	764
-61.2262	67.4734	762
-59.0316	66.8536	755
-57.0194	66.4108	750
-55.3243	66.3223	749
-54.2071	66.9421	756
-52.9205	67.3849	761
-51.8145	68.0932	769
-50.2173	68.1818	770
-48.5528	68.1818	770
-46.8274	68.0932	769
-44.8714	67.6505	764
-42.7107	66.8536	755
-40.9698	66.6765	753
-39.6032	67.1192	758
-37.8645	66.9421	756
-36.0865	66.6765	753
-34.4587	66.6765	753
-32.8745	66.765	754
-30.996	66.2337	748
-29.1826	65.791	743
-27.4651	65.5254	740
-25.9004	65.6139	741
-24.6593	66.5879	752
-22.9724	66.4108	750
-21.2657	66.1452	747
-19.4405	65.4368	739
-17.9154	65.7025	742
-16.3773	65.9681	745
-14.747	65.8796	744
-13.1034	65.7025	742
-11.6234	66.4108	750
-10.1221	67.2078	759
-8.55962	67.8276	766
-6.92177	68.0047	768
-5.19306	67.1192	758
-3.52635	66.5879	752
-1.87799	65.791	743
-0.271467	65.7025	742
1.3415	66.1452	747
2.96818	66.4108	750
4.60782	66.6765	753
6.21075	66.4108	750
7.80071	66.1452	747
9.30207	65.3483	738
10.986	65.8796	744
12.5435	65.6139	741
14.1645	65.7025	742
15.7897	65.791	743
17.8173	67.3849	761
19.5902	67.8276	766
21.1906	67.6505	764
22.7525	67.3849	761
24.4617	67.562	763
26.248	67.9162	767
27.9788	68.0932	769
29.6026	68.0047	768
31.0185	67.4734	762
32.2371	66.5879	752
33.8627	66.5879	752
35.4883	66.5879	752
37.5087	67.2963	760
39.6668	68.1818	770
41.546	68.536	774
43.2192	68.536	774
45.1243	68.8902	778
46.8663	68.9787	779
48.488	68.8902	778
49.7829	68.3589	772
51.2518	68.0932	769
52.7077	67.8276	766
55.1443	68.8016	777
57.2627	69.3329	783
58.9553	69.3329	783
60.2607	68.8902	778
61.5444	68.4474	773
63.0518	68.2703	771
64.9704	68.536	774
66.4713	68.3589	772
67.5223	67.7391	765
68.8143	67.3849	761
70.1816	67.1192	758
71.0622	66.4108	750
72.6835	66.4108	750
75.8899	67.8276	766
78.2545	68.4474	773
80.6492	69.0673	780
82.4409	69.1558	781
83.4829	68.6245	775
84.0594	67.7391	765
84.4807	66.765	754
85.6538	66.4108	750
86.926	66.1452	747
90.2002	67.3849	761
92.2073	67.6505	764
94.2274	67.9162	767
96.0105	68.0047	768
97.0348	67.562	763
98.4255	67.3849	761
99.2816	66.8536	755
100.245	66.4108	750
101.595	66.2337	748
104.592	67.1192	758
103.988	65.7025	742
105.165	65.4368	739
106.329	65.1712	736
108.8	65.7025	742
111.594	66.4108	750
114.121	66.9421	756
115.143	66.5879	752
116.303	66.3223	749
117.135	65.8796	744
119.701	66.4108	750
121.807	66.6765	753
123.927	66.9421	756
124.399	66.3223	749
125.681	66.1452	747
126.614	65.791	743
128.221	65.791	743
129.827	65.791	743
130.725	65.4368	739
132.86	65.7025	742
135.551	66.2337	748
136.618	65.9681	745
137.486	65.6139	741
137.962	65.0826	735
139.171	64.9055	733
141.332	65.1712	736
141.758	64.6399	730
143.139	64.5513	729
145.112	64.7284	731
145.89	64.3742	727
147.258	64.2857	726
149.648	64.6399	730
153.712	65.7025	742
157.618	66.6765	753
159.458	66.765	754
160.019	66.3223	749
160.344	65.791	743
165.219	67.1192	758
167.518	67.3849	761
166.718	66.4108	750
166.768	65.791	743
168.374	65.791	743
170.438	65.9681	745
170.894	65.5254	740
172.96	65.7025	742
173.152	65.1712	736
174.031	64.9055	733
179.449	66.3223	749
181.551	66.4994	751
181.955	66.0566	746
185.537	66.765	754
190.393	67.9162	767
194.305	68.7131	776
197.245	69.1558	781
198.679	69.0673	780
197.539	68.0932	769
195.057	66.6765	753
194.334	65.8796	744
196.469	66.0566	746
200.471	66.8536	755
204.245	67.562	763
204.005	66.9421	756
204.28	66.4994	751
206.726	66.765	754
210.29	67.3849	761
214.163	68.0932	769
216.948	68.4474	773
219.75	68.8016	777
220.575	68.536	774
220.525	68.0047	768
219.871	67.2963	760
220.639	67.0307	757
220.514	66.4994	751
223.912	67.0307	757
223.761	66.4994	751
225.985	66.6765	753
229.728	67.2963	760
232.285	67.562	763
235.467	68.0047	768
236.818	67.9162	767
238.787	68.0047	768
240.448	68.0047	768
234.542	65.8796	744
234.881	65.5254	740
235.202	65.1712	736
237.436	65.3483	738
237.412	64.9055	733
240.301	65.2597	737
247.146	66.6765	753
253.729	68.0047	768
255.389	68.0047	768
255.376	67.562	763
253.994	66.765	754
254.607	66.4994	751
258.96	67.2078	759
259.914	67.0307	757
260.859	66.8536	755
261.796	66.6765	753
261.324	66.1452	747
262.939	66.1452	747
265.971	66.4994	751
269.732	67.0307	757
272.085	67.2078	759
274.087	67.2963	760
275.367	67.2078	759
275.913	66.9421	756
276.079	66.5879	752
279.92	67.1192	758
282.673	67.3849	761
283.571	67.2078	759
286.339	67.4734	762
286.474	67.1192	758
288.113	67.1192	758
289.751	67.1192	758
294.85	67.9162	767
296.121	67.8276	766
296.222	67.4734	762
295.133	66.8536	755
294.014	66.2337	748
295.631	66.2337	748
296.85	66.1452	747
297.666	65.9681	745
301.285	66.4108	750
304.926	66.8536	755
307.37	67.0307	757
310.231	67.2963	760
310.643	67.0307	757
310.216	66.5879	752
314.745	67.2078	759
316.802	67.2963	760
316.769	66.9421	756
315.034	66.2337	748
316.651	66.2337	748
322.523	67.1192	758
325.872	67.4734	762
324.94	66.9421	756
325.279	66.6765	753
327.341	66.765	754
328.971	66.765	754
336.301	67.9162	767
339.721	68.2703	771
342.716	68.536	774
343.499	68.3589	772
346.51	68.6245	775
348.185	68.6245	775
347.152	68.0932	769
343.824	67.1192	758
345.463	67.1192	758
347.56	67.2078	759
348.74	67.1192	758
347.605	66.5879	752
347.838	66.3223	749
353.656	67.1192	758
354.826	67.0307	757
354.108	66.5879	752
352.422	65.9681	745
353.082	65.791	743
350.392	64.9941	734
351.02	64.817	732
356.937	65.6139	741
358.539	65.6139	741
368.889	67.2078	759
371.018	67.2963	760
367.267	66.3223	749
361.006	64.9055	733
361.107	64.6399	730
364.672	64.9941	734
367.756	65.2597	737
373.358	65.9681	745
376.982	66.3223	749
380.623	66.6765	753
384.281	67.0307	757
384.898	66.8536	755
389.09	67.2963	760
395.36	68.0932	769
398.055	68.2703	771
397.129	67.8276	766
393.059	66.8536	755
392.077	66.4108	750
394.748	66.5879	752
394.792	66.3223	749
393.765	65.8796	744
392.185	65.3483	738
393.78	65.3483	738
396.983	65.6139	741
400.198	65.8796	744
402.347	65.9681	745
406.126	66.3223	749
411.012	66.8536	755
412.644	66.8536	755
409.886	66.1452	747
406.543	65.3483	738
405.373	64.9055	733
408.068	65.0826	735
412.444	65.5254	740
418.52	66.2337	748
422.945	66.6765	753
425.137	66.765	754
426.201	66.6765	753
425.556	66.3223	749
423.753	65.791	743
421.924	65.2597	737
421.219	64.9055	733
426.264	65.4368	739
428.441	65.5254	740
434.108	66.1452	747
433.973	65.8796	744
432.069	65.3483	738
433.664	65.3483	738
433.49	65.0826	735
436.855	65.3483	738
435.48	64.9055	733
434.083	64.4628	728
436.853	64.6399	730
439.633	64.817	732
441.215	64.817	732
443.402	64.9055	733
444.38	64.817	732
444.744	64.6399	730
449.99	65.1712	736
456.49	65.8796	744
462.408	66.4994	751
468.357	67.1192	758
468.755	66.9421	756
464.167	66.0566	746
463.907	65.791	743
465.513	65.791	743
-560.508	68.9391	760
-563.277	69.4833	766
-567.487	70.209	774
-565.814	70.209	774
-564.869	70.2997	775
-559.561	69.8462	770
